ply
format ascii 1.0
element vertex 1940
property float x
property float y
property float z
end_header
18.4184 91.5293 -62.061
22.906 92.2795 -58.061
-32.8949 93.3233 -57.061
26.1813 93.3233 -57.061
31.1326 94.8376 -49.061
-30.1475 93.4153 -61.061
-25.4915 92.4601 -66.061
-15.9137 91.505 -71.061
-7.16095 91.1229 -73.061
11.1418 92.8422 -64.061
-27.0927 93.879 -63.061
-23.6506 92.5296 -70.061
-12.3588 92.1441 -72.061
-4.05753 92.1441 -72.061
14.3494 93.879 -63.061
27.4769 95.6139 -54.061
-20.0731 93.1687 -71.061
-13.0413 93.5577 -69.061
-0.737015 92.9742 -72.061
3.41362 92.9742 -72.061
7.65803 93.7522 -68.061
17.7324 94.7247 -63.061
24.3231 96.0863 -56.061
29.7936 96.8643 -52.061
32.9995 97.2533 -50.061
-9.25884 94.0006 -71.061
-6.145 94.1968 -70.061
9.8115 94.9818 -66.061
13.3456 94.7855 -67.061
-31.2572 97.0102 -60.061
-17.3395 94.6344 -72.061
16.5359 95.8223 -66.061
-26.662 96.2634 -68.061
-24.2324 95.6643 -71.061
-14.3837 95.0651 -74.061
-3.22739 95.4646 -72.061
4.88284 95.6643 -71.061
19.8981 96.6629 -66.061
25.7541 99.0595 -54.061
-28.8536 97.5034 -66.061
-20.4152 96.0932 -73.061
-12.5863 96.4961 -71.061
-0.108345 96.4961 -71.061
6.82095 97.1005 -68.061
28.0639 100.324 -52.061
31.2628 100.727 -50.061
10.1693 97.9376 -68.061
13.5175 97.9376 -68.061
-18.2756 97.3402 -75.061
-6.3586 98.5697 -69.061
-2.81059 98.3648 -70.061
3.0246 98.3648 -70.061
33.6177 102.873 -48.061
-26.662 99.6117 -68.061
-23.4005 98.9917 -71.061
-14.9759 98.1651 -75.061
-11.0771 98.3717 -74.061
23.6128 101.885 -57.061
25.7541 102.505 -54.061
-33.5444 101.908 -61.061
-30.4757 101.491 -63.061
-20.997 99.1984 -74.061
0.324089 100.24 -69.061
6.17144 100.24 -69.061
28.0639 103.783 -52.061
30.2625 104.408 -49.061
9.51279 101.076 -69.061
-28.8536 102.547 -66.061
-8.59717 100.852 -74.061
-5.68652 100.428 -76.061
-5.52327 101.911 -69.061
21.7493 104.665 -56.061
32.4924 106.784 -46.061
34.6128 106.149 -49.061
-25.5714 102.746 -69.061
-23.1504 102.106 -72.061
-19.8299 102.106 -72.061
-12.1313 101.892 -73.061
-1.977 102.533 -70.061
1.20979 103.601 -65.061
3.66544 102.746 -69.061
24.0313 105.951 -54.061
35.9935 107.659 -46.061
-33.8587 104.874 -63.061
0.124367 103.797 -68.061
7.1926 103.366 -70.061
26.3341 107.243 -52.061
29.3924 107.889 -49.061
-4.061 104.634 -68.061
4.76822 105.068 -66.061
16.6019 107.239 -56.061
19.7244 107.673 -54.061
-30.5347 105.909 -66.061
-27.499 105.471 -68.061
-10.6985 104.596 -72.061
-7.81219 105.034 -70.061
-0.874214 106.565 -63.061
31.6171 110.285 -46.061
-24.4842 105.867 -70.061
-21.4902 105.426 -72.061
2.05207 106.97 -65.061
14.5561 109.396 -54.061
22.1592 109.617 -53.061
27.9267 110.058 -51.061
-5.31834 107.59 -66.061
-1.95615 107.59 -66.061
6.82095 107.145 -68.061
30.2625 111.369 -49.061
-10.313 107.534 -70.061
17.3 110.895 -55.061
24.6044 111.567 -52.061
-28.5949 109.045 -67.061
-13.6474 108.368 -70.061
-0.6745 109.723 -64.061
4.11871 109.045 -67.061
-24.736 109.429 -69.061
-21.7368 108.974 -71.061
-9.08344 109.657 -68.061
9.51279 109.429 -69.061
20.7386 112.614 -55.061
27.0601 113.524 -51.061
-5.94701 110.723 -67.061
-2.7967 110.952 -66.061
-21.8844 111.562 -67.061
-4.25724 112.486 -63.061
6.17144 111.1 -69.061
17.7793 113.641 -58.061
24.1772 114.333 -55.061
-28.3361 112.168 -68.061
-16.9818 111.702 -70.061
-13.4182 111.47 -71.061
-3.01726 111.935 -69.061
2.63559 112.168 -68.061
29.3924 116.589 -49.061
-24.9878 113.005 -68.061
21.0443 115.584 -57.061
25.4693 116.756 -52.061
-31.9501 114.078 -67.061
-19.724 113.606 -69.061
5.904 112.897 -72.061
10.9577 111.716 -77.061
14.2435 111.716 -77.061
19.1079 115.495 -61.061
-25.8961 113.965 -71.061
-5.31139 114.203 -70.061
1.55538 113.965 -71.061
8.76255 113.252 -74.061
23.4652 117.534 -56.061
-29.748 115.276 -69.061
-17.5775 114.797 -71.061
-1.77207 114.797 -71.061
21.5027 117.433 -60.061
-23.7287 115.146 -73.061
-13.9183 114.422 -76.061
-8.37661 114.663 -75.061
-5.29056 114.905 -74.061
16.8867 117.56 -63.061
-20.9049 116.461 -71.061
-18.8574 115.245 -76.061
10.7771 115.245 -76.061
20.2697 118.406 -63.061
-31.6844 118.027 -68.061
-26.728 117.293 -71.061
0.923241 117.048 -72.061
3.80263 116.558 -74.061
7.10925 116.558 -74.061
-16.1499 116.645 -77.061
-3.019 117.631 -73.061
22.6559 120.344 -62.061
-33.8969 120.198 -66.061
-24.5571 118.46 -73.061
-20.7504 117.963 -75.061
-12.8642 117.466 -77.061
-9.20153 117.963 -75.061
-6.11721 118.211 -74.061
-29.4858 120.038 -70.061
19.582 121.539 -64.061
-31.6844 121.376 -68.061
-0.330635 119.865 -74.061
2.97598 119.865 -74.061
8.86501 118.606 -79.061
-18.6143 119.931 -77.061
-15.6741 119.424 -79.061
-3.42712 120.438 -75.061
6.28259 120.691 -74.061
21.9612 123.48 -63.061
24.9066 124.241 -60.061
-28.3361 123.05 -68.061
-21.8236 121.518 -74.061
-12.4022 120.242 -79.061
-9.57838 120.752 -77.061
-6.5097 121.007 -76.061
7.67192 120.752 -77.061
12.4946 119.731 -81.061
1.12296 122.602 -73.061
19.74 124.658 -65.061
-27.5598 123.948 -71.061
-5.85844 121.878 -79.061
-2.7967 122.136 -78.061
0.0757446 122.654 -76.061
3.99714 122.913 -75.061
10.501 121.878 -79.061
24.4985 126.018 -63.061
-19.1908 122.956 -78.061
-15.6741 122.695 -79.061
-10.3113 122.174 -81.061
2.94125 122.956 -78.061
-24.5571 125.087 -73.061
6.4111 123.513 -79.061
11.8608 122.727 -82.061
22.2669 127.185 -65.061
-9.13033 124.331 -79.061
-4.64973 124.859 -77.061
-0.13266 124.331 -79.061
-27.3011 127.009 -72.061
-21.3269 125.947 -76.061
-13.2202 125.149 -79.061
23.6527 129.401 -63.061
-18.3711 126.235 -78.061
3.13922 125.967 -79.061
9.23666 125.432 -81.061
13.8406 124.63 -84.061
19.8981 129.444 -66.061
-24.3036 128.131 -74.061
-15.3285 127.324 -77.061
-6.89523 127.055 -78.061
19.424 131.092 -63.061
-10.7663 127.603 -79.061
-3.40453 127.603 -79.061
-0.13266 127.603 -79.061
6.60213 127.332 -80.061
-28.3917 130.603 -71.061
-21.3269 129.239 -76.061
11.2304 127.331 -83.061
22.114 132.511 -64.061
-17.7928 129.788 -77.061
3.95719 129.239 -79.061
-25.9569 131.438 -74.061
-14.8561 130.875 -79.061
-3.40453 130.875 -79.061
-0.13266 130.875 -79.061
19.424 135.321 -63.061
-23.2251 132.812 -75.061
-20.2571 132.252 -77.061
22.2669 135.608 -65.061
-17.31 133.329 -79.061
-26.7835 135.571 -74.061
-4.2225 134.147 -79.061
-22.9733 135.825 -76.061
-20.0105 135.252 -78.061
13.2466 135.825 -76.061
20.7386 138.69 -66.061
24.1008 138.69 -66.061
-12.4022 135.783 -79.061
-9.13033 135.783 -79.061
-27.3011 138.631 -72.061
-24.3036 138.051 -74.061
-17.31 136.601 -79.061
-1.76859 136.601 -79.061
1.50328 136.601 -79.061
-13.6856 138.002 -77.061
-28.9127 141.172 -69.061
-21.3269 139.117 -76.061
-6.89523 138.53 -78.061
8.86501 138.237 -79.061
11.958 138.53 -78.061
14.893 139.117 -76.061
17.8557 139.704 -74.061
-9.9483 139.055 -79.061
-1.57062 139.941 -76.061
1.72211 139.941 -76.061
-27.3011 141.952 -72.061
-23.7287 141.655 -73.061
3.95719 139.873 -79.061
-18.6143 141.288 -77.061
-15.4362 140.392 -80.061
-4.43612 140.99 -78.061
0.68531 140.691 -79.061
19.3475 142.483 -73.061
-12.4022 141.509 -79.061
-7.71494 141.809 -78.061
7.22907 141.509 -79.061
10.501 141.509 -79.061
13.5974 141.809 -78.061
15.546 142.711 -75.061
-21.3269 143.233 -76.061
-0.542511 142.931 -77.061
2.74326 142.931 -77.061
10.4159 143.838 -74.061
-27.3011 145.272 -72.061
-23.4769 144.664 -74.061
18.1926 145.576 -71.061
-18.128 143.963 -79.061
-14.3837 143.351 -81.061
-9.9483 143.963 -79.061
-6.5097 144.88 -76.061
17.0291 145.491 -74.061
-3.21697 145.703 -76.061
13.0712 146.01 -75.061
14.2053 146.932 -72.061
-24.8107 147.763 -72.061
-20.5038 146.526 -76.061
0.278931 146.217 -77.061
3.76095 145.908 -78.061
8.76255 147.144 -74.061
-8.75694 147.038 -77.061
17.5258 148.593 -72.061
-21.8236 148.798 -74.061
6.85048 147.86 -77.061
-9.72253 147.738 -80.061
10.7771 148.996 -76.061
13.7225 149.624 -74.061
-26.728 151.399 -71.061
-23.1504 151.083 -72.061
16.034 151.595 -73.061
6.4111 150.506 -79.061
-20.6601 153.573 -72.061
9.31481 151.967 -77.061
12.4234 152.288 -76.061
-26.985 155.05 -70.061
-23.9806 154.404 -72.061
-7.27383 151.819 -80.061
-4.43612 153.285 -78.061
-1.15729 153.285 -78.061
2.12154 154.105 -78.061
5.2076 154.431 -77.061
8.49337 155.253 -77.061
11.2425 156.237 -74.061
-23.1504 157.724 -72.061
-5.04047 156.232 -79.061
-1.977 156.564 -78.061
1.30183 157.384 -78.061
4.58066 157.384 -78.061
-12.0427 158.539 -77.061
-6.29261 158.539 -77.061
-22.5686 161.381 -71.061
-15.5647 159.697 -76.061
-9.13033 158.686 -79.061
-17.6904 161.197 -74.061
-2.7967 159.843 -78.061
0.68531 160.322 -79.061
3.95719 160.322 -79.061
-12.6332 161.482 -78.061
-38.7422 172.618 -48.061
-9.13033 161.958 -79.061
-5.04047 161.958 -79.061
-2.16629 161.27 -81.061
-15.5647 163.813 -76.061
-35.9358 172.972 -52.061
-0.13266 163.594 -79.061
4.34968 162.899 -81.061
-32.8202 173.139 -54.061
-14.3837 166.157 -74.061
-11.5842 164.412 -79.061
-38.7422 176.105 -48.061
-9.57838 165.932 -77.061
-7.27383 164.879 -80.061
-3.79529 164.528 -81.061
3.13922 165.23 -79.061
-41.0312 177.682 -46.061
-35.3349 175.919 -51.061
-33.6816 176.584 -54.061
-13.5571 169.464 -74.061
-5.85844 167.684 -79.061
-2.37643 167.328 -80.061
0.68531 167.684 -79.061
-30.5834 176.73 -56.061
-10.3998 169.217 -77.061
3.95719 168.502 -79.061
-41.8491 182.261 -43.061
-26.4015 176.51 -59.061
-7.11406 170.039 -77.061
-35.9358 179.891 -52.061
-3.82829 170.86 -77.061
-0.542511 170.86 -77.061
2.74326 170.86 -77.061
-40.1559 182.934 -46.061
-32.8202 180.03 -54.061
-23.5985 177.852 -60.061
-43.6101 184.903 -43.061
-30.3263 179.797 -57.061
-5.71777 174.327 -72.061
-27.2542 179.92 -59.061
-2.81059 174.424 -74.061
0.898926 173.691 -76.061
-36.8006 183.35 -52.061
4.19164 174.514 -76.061
7.10925 175.251 -74.061
-41.0312 186.435 -46.061
-38.4731 185.325 -49.061
-33.6816 183.475 -54.061
-27.7578 182.366 -57.061
-8.86462 177.927 -69.061
-43.6101 188.425 -43.061
-30.5834 183.593 -56.061
-9.52107 179.877 -66.061
-5.93139 178.019 -71.061
-0.330635 176.904 -74.061
2.97598 176.904 -74.061
5.904 177.647 -72.061
12.8611 186.195 -49.061
-23.8434 183.331 -59.061
-14.1788 181.464 -64.061
-2.81059 179.224 -70.061
-1.75297 180.344 -67.061
1.79852 179.971 -68.061
9.2245 178.477 -72.061
-39.0114 188.685 -47.061
-35.3349 187.185 -51.061
-20.1946 183.809 -60.061
-11.0233 182.683 -63.061
-6.3586 180.433 -69.061
-42.7817 189.936 -46.061
-33.6816 186.921 -54.061
-27.7578 185.79 -57.061
5.14681 181.645 -68.061
-14.6338 184.754 -62.061
-4.26939 182.861 -67.061
0.763466 182.861 -67.061
10.7667 188.539 -52.061
-36.4672 190.165 -50.061
-24.9427 187.122 -58.061
-22.5044 185.981 -61.061
-17.7893 185.221 -63.061
-7.62463 183.699 -67.061
4.76822 184.08 -66.061
12.8611 190.545 -49.061
-40.4858 191.797 -48.061
-30.8404 189.123 -55.061
-11.2439 186.449 -62.061
-7.42666 185.684 -64.061
-1.95615 184.92 -66.061
-33.6816 190.366 -54.061
-27.7578 189.215 -57.061
-21.2853 188.447 -59.061
-18.2582 187.68 -61.061
9.55447 191.902 -50.061
-38.5303 191.999 -52.061
-14.6338 188.144 -62.061
-4.05058 187.372 -64.061
1.40603 186.601 -66.061
12.6944 193.541 -48.061
-24.6961 190.153 -59.061
-9.76595 189.378 -61.061
3.35457 188.604 -63.061
-40.8089 194.507 -50.061
-36.2657 192.951 -54.061
-30.8404 192.562 -55.061
-6.79451 189.449 -63.061
-1.71997 189.449 -63.061
5.14854 191.006 -59.061
6.73759 189.449 -63.061
8.34922 193.34 -53.061
-26.9016 192.64 -57.061
-21.8966 191.467 -60.061
-17.1763 190.686 -62.061
10.2509 195.766 -49.061
-13.5606 191.141 -63.061
13.4012 197.421 -47.061
-34.015 194.746 -56.061
-28.2614 195.141 -55.061
-10.1775 191.987 -63.061
-5.31139 192.381 -62.061
-2.12288 192.775 -61.061
5.63308 194.352 -57.061
-37.9885 196.396 -54.061
-8.06749 193.624 -61.061
3.63244 194.02 -60.061
7.66498 196.396 -54.061
-31.1825 196.064 -57.061
-16.9436 193.678 -63.061
-6.99944 192.485 -66.061
-45.4492 198.918 -52.061
-13.5606 194.524 -63.061
-35.7309 198.178 -56.061
-28.3604 197.376 -58.061
-25.4359 198.178 -56.061
-10.1775 195.37 -63.061
3.92072 197.777 -57.061
7.34543 198.633 -57.061
-32.8949 199.489 -57.061
-16.9436 197.061 -63.061
8.52637 200.703 -54.061
-45.741 201.564 -54.061
-42.2955 201.564 -54.061
-40.6005 200.345 -57.061
-25.5488 199.533 -59.061
-22.3794 199.939 -58.061
-19.3437 199.126 -60.061
-13.5606 197.907 -63.061
-8.91672 198.72 -61.061
-37.1758 201.202 -57.061
-29.8123 200.385 -59.061
4.10828 200.793 -58.061
-45.7375 202.914 -57.061
-33.7511 202.914 -57.061
-16.9436 200.444 -63.061
-11.0233 200.444 -63.061
-6.79451 200.444 -63.061
-41.1562 204.597 -55.061
-27.0024 202.53 -60.061
-23.8434 202.943 -59.061
-20.1946 202.53 -60.061
7.00152 52.8294 -43.0021
10.3511 52.8294 -41.9137
12.8633 54.5904 -41.0975
16.2129 54.5904 -40.0091
19.5625 55.4709 -38.9208
-18.0911 56.6848 -48.0008
11.0056 56.0179 -44.8554
15.1678 56.0179 -43.503
22.6287 57.0182 -31.6157
18.4976 56.8932 -42.4211
20.657 57.5705 -35.4107
10.0151 57.4246 -48.3317
13.325 57.4246 -47.2562
3.08485 58.1783 -51.6349
16.635 58.2947 -46.1807
23.1841 59.3419 -34.5896
26.5535 59.3419 -33.4948
-18.0911 60.2276 -48.0008
20.2916 59.2829 -43.9412
11.8438 59.7952 -49.8404
15.3077 59.5555 -50.8178
4.94164 60.5402 -53.1345
23.2802 61.7559 -36.6613
28.2382 61.999 -32.9475
32.0587 61.8774 -32.7576
-16.155 62.6381 -49.4746
10.2672 60.9118 -55.61
12.5264 61.1585 -52.773
-27.908 64.6457 -43.8302
-19.7758 63.7704 -48.5481
17.1165 61.8948 -52.333
26.2616 63.3953 -36.7441
31.5511 64.0205 -29.7681
6.48806 62.7544 -55.7864
-26.2278 66.0559 -46.4387
19.7331 63.3571 -53.5858
27.8552 65.4133 -34.1234
32.3502 66.0559 -27.4055
-22.8596 66.5577 -48.4987
-18.6722 66.167 -50.2925
13.8462 64.4737 -53.3956
29.8747 65.2552 -41.8789
29.8598 66.688 -30.3176
-8.21886 65.7294 -57.4106
17.1165 65.3334 -52.333
22.9902 65.0694 -52.5275
24.2065 65.8613 -45.8235
32.7287 66.2573 -39.9001
27.5033 66.7279 -44.7523
28.9012 69.0012 -26.4232
15.6617 66.7818 -54.9086
19.7331 66.7818 -53.5858
-13.1545 68.7355 -55.8599
24.9098 68.7355 -43.4921
29.0473 68.7355 -42.1477
-9.04139 69.1888 -57.6779
23.4743 68.3552 -53.4217
32.3572 69.6056 -41.0723
14.4269 68.7876 -59.5157
17.7859 69.2096 -55.2699
11.1962 69.6369 -60.5654
17.6576 69.6369 -58.466
21.6959 69.6369 -57.1539
-13.4318 72.0717 -57.0015
25.5803 70.7744 -53.7888
33.7302 71.7834 -43.7805
-9.86392 72.6482 -57.9451
-6.31582 72.3565 -58.8952
19.9572 70.8977 -60.8732
37.0203 72.6482 -42.7115
11.9301 71.7417 -63.4814
15.438 71.8893 -61.2901
23.4817 71.8893 -58.6766
36.8113 75.2741 -36.4707
40.9335 75.5728 -33.0283
-10.412 74.9406 -60.2261
-7.13789 74.4874 -62.3167
18.0513 73.2786 -62.5439
22.0566 73.2786 -61.2425
25.7342 73.883 -55.8417
33.5757 74.4874 -49.088
33.8263 74.9406 -45.8522
43.8469 76.6026 -31.0303
8.16126 73.9681 -66.8089
11.3589 73.9681 -65.7699
14.5565 73.9681 -64.7309
36.1978 76.1077 -42.9788
-29.884 78.8273 -51.8325
-26.2236 78.5182 -52.7461
-4.42554 75.8906 -63.5383
2.31192 75.5815 -63.4521
24.9488 74.8087 -61.3543
28.3078 75.2723 -57.1085
31.5253 75.2723 -56.063
39.3086 77.8999 -35.6592
20.1524 75.6492 -62.9127
35.9208 77.3685 -46.2232
36.944 78.15 -40.6334
41.7693 79.0878 -32.7568
-22.292 79.6505 -55.6745
-8.76644 77.9121 -62.8458
10.0048 76.1737 -68.3128
13.1892 76.1737 -67.2781
16.9547 76.4897 -63.9517
25.0904 76.9639 -58.1539
32.5356 77.438 -52.5804
-27.631 81.3246 -52.1519
-19.7744 80.0464 -58.0108
-14.7991 79.5671 -59.5487
-0.918741 78.1292 -64.5018
27.347 77.3303 -60.575
37.9225 79.2476 -44.5213
37.2574 80.366 -37.3772
41.0201 80.2062 -37.2061
-12.3162 79.9474 -61.8963
19.5581 77.8478 -65.2087
22.7425 77.8478 -64.1741
28.3078 78.6554 -57.1085
31.5253 78.6554 -56.063
35.7729 79.1399 -51.5285
-6.04748 80.1541 -64.0653
6.82041 78.6849 -69.3475
15.5776 78.6849 -66.5021
25.9269 78.6849 -63.1394
39.4879 81.2968 -41.9097
42.6384 82.2763 -34.5773
-21.9944 82.8216 -57.6807
-17.0026 82.3267 -59.2132
-9.58071 81.3368 -63.1104
-1.45357 80.3469 -66.7785
10.5269 79.357 -69.1946
33.0032 80.6768 -53.4799
36.3768 81.5018 -47.1265
44.7695 82.6566 -37.0393
-28.1691 84.527 -54.4297
-24.7893 84.0269 -56.4859
27.347 80.6925 -60.575
39.1911 82.5264 -45.1606
41.5144 83.1933 -40.1998
-18.9469 84.3968 -57.742
-13.6889 83.5545 -61.2909
13.4274 80.8592 -69.3036
18.762 81.1961 -65.4674
22.1482 80.8592 -66.4701
27.5035 82.0384 -57.3698
35.8888 82.2068 -53.5938
-7.93023 83.3947 -65.7285
6.55465 81.863 -70.4853
15.5776 82.0332 -66.5021
24.3347 82.0332 -63.6567
41.1994 84.4159 -43.4566
-21.9944 86.3089 -57.6807
-16.7066 85.4492 -61.2199
-11.2092 84.7615 -63.6396
10.2562 82.5264 -70.334
30.5447 83.2141 -59.5361
31.7263 84.2457 -52.8433
43.6006 85.6211 -40.5735
43.942 86.1369 -37.3081
45.1357 86.6527 -33.7659
-29.8439 88.049 -54.9739
-25.6218 87.528 -56.7564
15.2511 83.0127 -70.814
18.1842 83.36 -67.7581
27.5191 83.7073 -62.622
-19.7343 87.3509 -61.1522
-4.67102 85.4214 -67.8239
20.8548 84.369 -65.8389
40.0899 86.4738 -46.9715
-13.9513 87.6843 -62.4276
-9.29136 86.9757 -65.1193
7.08499 85.0272 -71.3644
12.0932 84.6729 -71.8401
24.0326 85.2043 -64.8063
32.2957 85.3815 -61.07
41.5758 88.0386 -42.2828
43.0729 89.1014 -35.4876
17.0683 85.1453 -72.3265
27.347 86.5763 -60.575
45.9681 90.1538 -33.4954
-27.2866 91.0291 -57.2973
-17.5275 89.7648 -61.4866
17.1091 86.5138 -69.1588
-23.0843 91.3573 -59.0863
-6.8299 88.9868 -67.4739
4.70658 87.528 -72.1372
9.72466 87.1633 -72.6097
14.4617 87.1633 -71.0705
20.2737 87.3456 -68.1306
26.416 87.7104 -64.0319
30.5447 88.2574 -59.5361
34.684 87.8927 -60.294
-13.6521 90.7547 -64.4333
0.74258 88.3616 -73.4252
22.4437 88.5457 -65.3226
35.8888 89.8343 -53.5938
43.0729 92.5956 -35.4876
-19.4235 92.1684 -63.1541
-10.3582 91.0534 -66.5174
-4.12416 90.3101 -68.6977
29.1113 89.5668 -62.1047
46.3961 93.4691 -34.4078
7.35617 89.6537 -73.3792
12.0932 89.6537 -71.8401
16.8301 89.6537 -70.3009
29.5897 91.1542 -57.7434
33.7423 90.779 -58.4971
37.8492 91.7168 -51.9053
40.9042 92.4671 -46.7069
19.4826 90.6731 -68.3877
24.8271 91.0517 -64.5482
28.9764 90.6731 -65.3029
33.9384 92.1875 -55.279
42.4614 93.7019 -44.098
44.4231 94.2697 -40.3062
44.7695 94.8376 -37.0393
22.1482 91.696 -66.4701
0.250696 92.1441 -75.6879
14.4617 92.1441 -71.0705
28.9458 93.3007 -60.0555
37.6168 93.6862 -55.1353
-13.3462 95.5028 -66.4368
7.61532 93.1687 -72.2436
11.3037 92.9742 -72.0966
17.6196 92.9742 -70.0444
25.5146 92.9742 -67.4792
32.1435 94.1412 -59.0166
39.5609 96.4753 -43.9889
43.657 96.4753 -42.658
46.4595 97.0588 -38.5931
-10.054 95.7667 -68.5215
4.73678 93.6081 -75.2818
20.7776 93.8043 -69.0183
28.1852 94.0006 -65.56
33.6032 95.3743 -56.4393
1.28614 94.8324 -74.3
28.3152 95.4264 -62.3634
11.8418 95.864 -69.8188
15.5268 95.6643 -69.673
31.4996 96.2634 -61.3287
34.684 96.2634 -60.294
35.5471 97.262 -54.7563
44.4231 99.4589 -40.3062
8.14567 96.2947 -73.1227
26.3041 96.2947 -67.2227
41.1994 99.9209 -43.4566
-9.49719 98.9535 -69.3921
2.9168 96.7184 -76.9246
6.06158 96.7184 -75.9028
11.8274 96.9216 -72.9779
19.1986 97.1248 -69.5314
35.3411 98.344 -57.9776
-0.296158 98.1599 -74.8142
24.8271 98.5697 -64.5482
27.5191 98.7747 -62.622
46.8907 102.053 -39.5044
46.824 102.873 -35.3203
-4.32504 99.6117 -72.9688
8.70125 97.9584 -77.148
22.1482 99.1984 -66.4701
30.7035 99.6117 -61.5874
33.8879 99.6117 -60.5527
42.3967 102.712 -42.0161
43.942 103.538 -37.3081
-13.5954 102.116 -67.5693
17.3914 100.032 -68.0157
39.2756 102.741 -47.236
-9.49719 102.337 -69.3921
2.37325 100.235 -76.0497
45.1357 105.909 -33.7659
-0.296158 101.487 -74.8142
6.06158 100.852 -75.9028
20.0603 101.911 -66.097
22.7425 102.123 -64.1741
26.416 101.911 -64.0319
33.7423 102.547 -58.4971
40.0087 104.877 -44.8949
43.6006 105.513 -40.5735
-4.32504 102.96 -72.9688
14.4992 102.746 -67.9039
29.5938 102.746 -62.9994
43.942 107.019 -37.3081
-21.0619 106.812 -63.6865
-14.6491 105.305 -68.9631
20.1524 104.228 -62.9127
40.7549 107.027 -42.5495
47.633 108.535 -32.9545
2.61919 103.766 -74.9184
11.8274 103.549 -72.9779
17.3914 104.2 -68.0157
44.3033 109.41 -34.0364
-16.5901 107.441 -67.4908
-1.08731 104.815 -75.0712
20.7599 106.347 -60.6124
24.6401 105.69 -62.506
26.905 105.034 -64.9245
41.899 109.41 -39.0234
-6.47237 106.529 -72.6151
13.1534 105.647 -70.4441
16.9547 106.749 -63.9517
30.5586 105.647 -64.7888
37.4714 109.617 -43.6164
-23.2737 110.48 -63.3537
-18.5377 109.591 -66.0207
27.5191 107.145 -62.622
40.3105 110.702 -41.6425
45.5402 112.258 -32.583
-3.77323 107.758 -73.841
1.82969 107.086 -75.1749
10.7787 106.638 -74.3701
15.8058 107.534 -68.5309
18.8523 108.655 -62.2837
40.6321 112.239 -38.3836
43.0729 112.687 -35.4876
22.5506 109.271 -62.1335
35.3753 112.432 -43.246
-0.843019 109.202 -73.9404
12.0932 108.747 -71.8401
12.9103 109.429 -68.4202
15.8648 109.884 -65.3573
20.2642 110.794 -59.722
29.9074 109.657 -61.846
37.5559 112.614 -45.6919
-19.6744 113.474 -64.2871
26.416 110.264 -64.0319
39.7267 112.786 -48.1409
39.4879 114.162 -41.9097
42.7249 114.62 -38.7551
-6.15659 111.1 -74.6154
8.40647 110.638 -71.9865
17.2502 112.024 -62.8042
33.5757 113.871 -49.088
14.4617 111.237 -71.0705
16.5986 111.702 -68.2733
36.9339 114.262 -50.0998
-11.0245 113.474 -73.0427
-3.22142 112.536 -74.7132
11.3037 112.067 -72.0966
29.4621 112.067 -66.1966
41.9555 116.756 -41.108
26.3041 112.897 -67.2227
39.7267 116.204 -48.1409
19.4826 113.965 -68.3877
33.7538 112.776 -69.008
40.0087 117.772 -44.8949
-0.296158 114.797 -74.8142
13.9235 114.078 -73.3483
16.0406 114.557 -70.5575
36.6949 116.954 -53.3319
40.2722 117.194 -51.1181
29.6474 114.905 -68.2393
42.0186 119.733 -43.1904
6.89118 115.002 -78.7876
22.3566 116.218 -68.5053
26.0086 115.975 -68.3701
45.2955 120.594 -42.1257
-2.1178 117.048 -76.4575
18.4091 117.048 -69.7879
34.5366 116.068 -68.7536
39.5689 119.252 -53.4495
1.34441 117.385 -77.4355
14.1815 116.892 -75.3674
16.2821 117.385 -72.5819
48.5724 122.317 -41.0609
4.7868 117.715 -78.4199
28.8612 118.211 -68.4947
40.2722 121.44 -51.1181
11.5786 118.288 -77.2646
20.9993 119.038 -71.0492
24.144 119.038 -70.0274
44.0965 123.79 -43.5667
14.9698 119.424 -78.2656
16.013 120.438 -73.7208
38.7645 123.48 -53.7109
42.2474 124.241 -49.4248
47.3668 125.509 -42.5041
50.2109 125.762 -40.5286
5.8706 120.497 -80.1707
19.6617 121.007 -73.5868
26.7077 121.007 -71.2974
41.982 124.326 -52.6655
22.7933 121.831 -72.5693
30.3283 121.574 -71.1724
36.9323 120.546 -73.2325
45.7898 126.714 -45.1194
14.7036 122.395 -76.2492
18.0815 121.878 -77.2546
21.1933 121.878 -76.2435
48.9637 128.605 -39.8823
26.6388 122.695 -74.4741
33.8338 122.174 -74.2393
37.9602 126.863 -53.9722
43.143 127.124 -51.2368
13.941 123.251 -79.6514
27.9846 124.038 -71.9339
23.5271 124.331 -75.4852
31.3064 124.331 -72.9575
37.8906 123.276 -75.0241
45.1182 129.083 -49.5435
48.1844 130.667 -42.2385
16.5257 125.149 -77.7601
19.6374 125.149 -76.749
40.3733 129.401 -53.1882
26.6388 125.967 -74.4741
34.6084 125.432 -73.9876
47.1034 131.049 -47.847
10.5481 127.055 -78.6509
13.941 126.516 -79.6514
27.9846 127.324 -71.9339
38.8788 130.554 -55.7767
41.8875 131.631 -50.5932
20.6828 127.874 -75.3579
31.5099 127.061 -74.9944
38.8489 125.978 -76.8156
48.6655 133.293 -45.2365
16.5257 128.421 -77.7601
24.305 128.421 -75.2324
45.1182 133.329 -49.5435
35.5766 128.142 -75.7759
7.67242 130.609 -78.5338
11.0801 130.057 -79.5295
42.6107 135.58 -48.2553
45.415 135.856 -46.2927
48.6157 136.408 -43.1498
14.1919 130.875 -78.5184
17.5644 131.153 -76.3711
21.1933 130.875 -76.2435
3.22102 132.532 -78.9287
-0.227976 133.918 -77.9464
44.1613 138.701 -45.6486
46.5493 139.263 -42.7698
7.19044 133.329 -80.7933
10.3022 133.329 -79.7822
-8.6263 137.85 -72.2635
16.5257 134.147 -77.7601
19.6374 134.147 -76.749
47.3219 141.552 -40.4158
44.0965 141.842 -43.5667
-5.91725 138.954 -73.4862
5.09101 136.071 -80.424
44.4231 144.432 -40.3062
-8.86563 140.92 -73.3927
14.468 136.835 -80.5316
17.3036 137.419 -77.5073
20.4153 137.419 -76.4963
41.7185 143.838 -46.4423
47.7132 145.296 -39.2372
43.279 145.281 -43.8323
-6.15659 142.007 -74.6154
45.6802 147.594 -40.9492
18.0815 140.691 -77.2546
21.1933 140.691 -76.2435
41.7185 147.262 -46.4423
44.0965 148.719 -43.5667
6.65019 145.088 -79.9174
20.1722 145.395 -74.4723
-3.46075 148.904 -75.8424
15.7477 146.417 -78.0129
0.250696 149.423 -75.6879
16.266 148.681 -75.7415
-4.80702 151.715 -75.2284
2.61919 151.913 -74.9184
13.4139 149.689 -78.7712
19.391 150.324 -74.7262
32.6721 150.324 -70.4109
35.3195 150.642 -68.4992
17.3036 151.324 -77.5073
-1.87846 154.727 -75.3283
23.0215 152.465 -74.598
30.0378 152.465 -72.3183
20.4153 152.96 -76.4963
32.6721 153.61 -70.4109
24.3591 154.758 -72.0605
16.5257 154.596 -77.7601
27.9846 155.253 -71.9339
34.0575 155.909 -67.8578
-1.08731 158.054 -75.0712
17.8285 156.074 -75.2339
22.7492 155.414 -75.738
30.6222 157.227 -70.0255
6.84777 158.717 -75.6473
25.8609 157.05 -74.7269
2.37325 159.879 -76.0497
12.3598 158.539 -77.0107
20.6828 158.203 -75.3579
28.9726 157.868 -73.7158
16.7848 159.023 -76.6244
32.9709 159.697 -69.2624
9.48414 160.52 -76.8937
24.8597 160.181 -72.9493
21.7347 161.003 -73.9647
-23.1244 172.43 -55.945
13.6665 161.482 -77.6377
19.1236 161.482 -75.8645
28.1947 161.14 -73.9686
25.5852 161.614 -75.8679
-15.3273 171.416 -61.8232
8.70125 163.813 -77.148
-18.0892 172.972 -60.6177
4.98768 166.025 -74.1488
16.5257 163.594 -77.7601
21.7038 163.247 -77.1291
-23.3902 175.582 -57.0828
12.3598 165.11 -77.0107
26.6388 164.412 -74.4741
29.7506 164.412 -73.4631
-12.8696 174 -61.0247
8.42016 166.984 -75.1364
-20.6019 176.624 -58.2797
18.8595 166.048 -77.0018
22.7492 166.048 -75.738
-24.7893 178.557 -56.4859
-16.4442 176.431 -60.0832
3.65959 169.7 -73.5289
14.7036 167.574 -76.2492
7.10032 169.82 -74.5138
25.8609 167.684 -74.7269
28.9726 167.684 -73.7158
-13.6889 177.446 -61.2909
-22.5594 180.823 -56.8128
-10.1309 177.588 -62.2377
18.8595 169.32 -77.0018
21.9712 169.32 -75.9907
-18.0892 179.891 -60.6177
23.2972 170.86 -73.457
26.9195 170.499 -73.3315
-6.04748 178.215 -64.0653
20.4446 172.868 -73.3324
24.3591 173.691 -72.0605
27.9846 173.325 -71.9339
-7.40531 181.141 -63.4551
18.977 177.557 -67.5005
17.7541 179.036 -63.6919
27.2888 176.077 -69.0056
30.7357 176.447 -66.8342
21.9464 179.134 -64.4327
15.013 179.224 -68.7885
25.8118 178.851 -66.3312
-4.42554 184.184 -63.5383
7.39442 182.683 -63.9036
27.034 187.56 -43.8533
0.696592 184.283 -63.977
14.7815 181.645 -66.7607
17.4603 182.022 -64.8389
20.6513 182.022 -63.8021
26.416 181.268 -64.0319
6.06632 185.601 -63.2837
13.7571 184.08 -64.9907
23.5386 183.319 -63.9154
25.5049 189.404 -46.4531
9.58092 186.831 -61.0903
18.5536 184.92 -63.4322
24.0824 191.415 -43.7609
27.3923 191.415 -42.6855
12.7328 186.528 -63.2206
29.3193 193.437 -38.9049
14.6337 188.604 -61.5515
23.9956 192.089 -49.0464
9.58092 190.228 -61.0903
18.0513 188.671 -62.5439
22.9902 191.784 -52.5275
24.5565 194.507 -44.6583
25.6263 195.674 -41.1563
-22.7719 194.984 -61.0877
3.37261 191.141 -65.2104
12.5144 191.533 -61.1886
17.0468 191.141 -60.7674
24.3373 195.066 -47.8839
27.6544 197.813 -39.4459
19.5866 193.169 -56.7878
6.59006 192.833 -64.165
9.8075 192.833 -63.1196
10.6841 194.02 -59.6804
14.4269 193.624 -59.5157
21.849 194.812 -53.9497
19.4599 193.678 -59.9833
24.6187 196.064 -51.9983
23.9956 198.119 -49.0464
19.9035 196.974 -55.6333
-24.0945 200.245 -63.6204
-10.9133 197.827 -65.6463
4.98133 196.216 -64.6877
8.19878 196.216 -63.6423
10.3886 197.021 -60.8279
21.3616 198.633 -53.0566
-19.352 199.489 -66.2853
19.4599 197.061 -59.9833
24.6187 199.489 -51.9983
-27.6157 201.564 -65.816
-13.9063 199.939 -65.5673
-3.61457 199.533 -63.2748
-21.3095 202.018 -64.8184
8.48436 199.161 -62.498
14.4269 199.569 -59.5157
-16.5901 201.238 -67.4908
-8.73954 200.828 -65.9915
-0.111071 200.418 -64.2394
4.16422 198.369 -68.1076
4.98133 199.599 -64.6877
11.7084 200.008 -61.4505
22.0145 200.828 -55.9989
22.1759 202.058 -52.7921
23.9956 203.287 -49.0464
-24.8175 203.325 -67.0097
-18.5377 203.77 -66.0207
-14.7189 203.357 -65.8314
-11.4684 203.357 -64.7752
-3.88364 202.53 -64.4137
19.2349 51.9489 -39.2513
23.5089 51.9489 -36.1461
24.9335 54.5904 -35.111
22.8322 55.3615 -37.8738
22.2492 56.7803 -42.0056
25.076 56.7803 -39.9518
27.1605 56.8932 -37.2012
29.993 56.8932 -35.1433
18.9536 58.062 -49.3442
32.877 58.411 -35.5201
24.4602 59.1648 -42.8713
28.0678 58.9286 -42.7224
30.1299 59.0467 -39.9881
-13.1421 62.1918 -47.9418
-1.65605 61.999 -50.7213
21.1192 60.5402 -49.0069
24.7367 60.2971 -48.8508
26.7706 60.4186 -46.137
35.0473 60.7833 -36.4154
1.4266 62.5148 -52.1898
30.9603 61.2818 -43.093
-12.9978 64.6457 -50.3091
-8.35094 64.1455 -51.8772
27.6432 61.7698 -49.2112
-3.80569 64.6561 -52.2831
3.79269 63.8954 -54.1789
9.6783 63.5151 -53.611
28.9179 62.8812 -45.8129
33.8898 62.6277 -44.6728
24.8004 63.6141 -50.0406
-10.5938 66.9485 -52.2707
-5.95533 66.4275 -53.8449
11.3236 64.8645 -56.1238
-3.80569 68.1989 -52.2831
22.2434 65.7919 -55.6065
31.0597 66.193 -45.493
33.8415 66.193 -43.4718
37.4042 65.9256 -43.3555
40.2601 67.3636 -43.7527
24.4727 68.0773 -56.459
27.9899 67.9384 -55.1396
31.5694 68.5063 -55.0111
36.0189 69.3503 -44.362
44.1695 70.4757 -28.5517
32.7992 69.6369 -51.6455
40.1748 70.2065 -41.3425
39.3711 70.6337 -38.2183
47.0076 70.9185 -30.1979
37.5532 70.6302 -46.9554
40.307 70.6302 -44.9547
29.5167 71.0436 -56.5025
6.42583 73.5131 -59.6823
32.2537 71.8893 -54.514
34.9906 71.8893 -52.5255
37.7275 71.8893 -50.537
40.4645 71.8893 -48.5485
47.0367 73.2179 -32.6488
29.0869 72.287 -60.523
42.4178 73.0338 -44.6572
45.0891 73.3325 -40.2442
47.1015 73.6312 -36.31
47.7073 74.378 -29.6895
31.807 73.1276 -58.5467
40.6472 73.1276 -52.1239
-10.9712 77.9416 -57.4891
34.4507 74.1209 -55.3899
37.1764 74.1209 -53.4096
47.8799 74.8851 -39.4527
9.40541 76.6634 -59.9896
41.8882 75.1178 -48.7502
44.4789 75.5815 -43.1597
47.7711 76.3543 -34.5874
29.8559 75.4929 -61.2003
34.011 75.3366 -59.4176
-0.880228 79.1764 -61.2822
39.2872 76.4897 -53.1121
43.8856 76.9639 -46.0629
-12.4042 81.4844 -58.5303
4.32677 79.5671 -61.2073
23.3587 77.8096 -60.9766
34.527 77.3303 -56.5705
42.0072 77.3303 -51.1358
46.5799 77.9694 -42.8693
48.6012 78.1292 -40.1647
-5.41282 81.401 -60.8671
29.9478 78.6849 -62.3697
32.6566 78.6849 -60.4016
37.3207 78.8481 -55.7769
43.9906 79.1746 -48.4588
-2.38828 82.8216 -61.1418
1.32751 82.4917 -60.9143
40.2558 79.192 -57.3526
40.0351 79.687 -53.8047
44.1691 79.522 -52.0373
44.5698 80.3469 -45.5658
48.6752 80.3469 -42.583
50.6623 80.6768 -38.6672
-9.97071 84.527 -60.4704
13.3559 81.8595 -63.2997
35.3654 80.359 -58.4335
-6.82905 84.9022 -61.8961
4.42562 83.723 -62.3716
30.1398 81.6928 -64.7023
32.8374 81.6928 -62.7423
38.2326 81.6928 -58.8225
42.8826 81.863 -54.208
44.7273 82.3736 -49.1596
46.7163 82.5438 -46.4784
46.54 83.2245 -41.6622
35.535 82.5264 -60.7824
40.9302 82.5264 -56.8626
-9.87045 87.8753 -61.6337
45.5858 83.5337 -52.244
48.9095 83.7073 -48.5931
46.4688 85.2703 -39.2418
3.8304 87.0001 -64.0401
15.8321 85.4214 -66.4449
52.3438 84.369 -47.334
-6.82905 89.2786 -61.8961
29.4654 85.0272 -65.1922
33.7011 84.6729 -64.587
37.5582 85.0272 -59.3125
41.531 85.2043 -55.19
44.0473 85.7358 -49.6536
36.3874 85.503 -62.6353
51.9876 87.8284 -35.2322
-10.5814 91.3903 -62.1502
23.9602 86.875 -67.956
43.4919 87.0556 -52.5293
46.8212 87.2362 -48.8743
50.264 87.0556 -47.6091
3.13352 90.4456 -64.5464
15.8321 88.8045 -66.4449
39.5814 87.528 -57.8426
50.8474 88.2574 -44.713
0.235931 91.4911 -65.4156
26.7679 88.3616 -67.1521
30.3432 87.9934 -67.0267
33.0295 87.9934 -65.0749
38.4022 87.9934 -61.1714
41.531 88.5457 -55.19
49.3595 89.6502 -42.0859
51.3793 89.8343 -39.3823
-13.5324 94.2124 -63.0581
22.7215 89.1952 -70.092
36.4807 88.6377 -63.8036
45.5235 89.5668 -51.0532
47.4474 89.9385 -47.1833
52.699 91.0534 -35.9514
52.6427 91.6109 -32.284
-10.5814 94.9054 -62.1502
44.3022 90.0288 -54.4127
54.7057 92.8422 -28.3131
40.4169 90.4838 -59.7076
45.9383 92.1875 -44.5715
50.9412 91.241 -47.1171
55.4237 93.134 -31.4996
32.3579 91.3139 -65.5629
37.7306 91.3139 -61.6594
42.3539 91.505 -57.0643
49.3993 92.8422 -43.293
35.8105 91.9513 -64.2905
44.91 92.7224 -52.735
47.6132 92.7224 -50.771
46.7673 93.3007 -47.6774
52.6296 95.2284 -31.0575
55.3993 95.6139 -26.5731
45.8632 92.7797 -56.9868
50.7279 94.7247 -41.0917
56.1036 96.8643 -23.5893
23.5102 94.0006 -70.7551
39.7454 93.8043 -60.1956
49.5357 94.7855 -46.9022
27.0981 94.4365 -70.6204
31.2265 94.2385 -68.857
41.6809 94.8324 -57.5532
50.1234 96.0203 -44.003
53.3147 98.0001 -29.3237
44.3729 95.6643 -55.5974
45.5858 96.0637 -52.244
47.5551 96.2634 -49.5772
54.0036 99.2592 -26.3511
37.7306 96.2947 -61.6594
50.0437 98.1078 -41.5888
56.1036 100.324 -23.5893
23.6273 97.1248 -71.906
32.3579 97.1248 -65.5629
39.662 97.328 -59.0201
40.7831 97.9376 -54.4974
50.264 97.9376 -47.6091
56.8247 101.595 -20.5932
27.2138 97.5451 -71.7724
31.4495 97.1352 -71.1672
51.218 101.644 -29.611
43.5584 99.4051 -53.717
45.5235 99.6117 -51.0532
53.3053 102.712 -26.8584
20.6983 100.032 -71.562
31.8953 99.1984 -68.3711
38.0742 100.449 -56.4654
48.2323 100.449 -49.0851
50.5648 102.741 -33.7938
55.4039 103.783 -24.0976
54.728 104.408 -20.8805
24.2989 100.445 -71.4181
33.0295 100.445 -65.0749
41.6046 100.866 -56.3726
28.5514 100.852 -70.8006
51.2283 104.877 -30.8396
53.3608 106.784 -18.1656
18.4353 102.96 -70.734
40.7137 103.174 -53.3117
44.91 102.746 -52.735
49.2024 105.096 -36.0197
52.607 106.164 -27.3657
22.1642 103.151 -71.733
26.3136 102.936 -69.9543
37.4762 103.582 -58.136
53.3123 107.673 -23.1451
37.9271 105.068 -54.1002
37.7275 105.72 -50.537
55.4852 109.41 -16.6221
0.574619 108.097 -68.8777
32.7456 105.252 -61.573
46.9374 105.252 -51.262
47.1015 107.878 -36.31
49.8242 108.535 -30.6236
17.758 106.308 -71.226
34.6882 106.308 -58.9255
42.8147 106.308 -53.0213
21.3727 106.701 -71.072
24.9705 106.256 -70.9302
27.6568 106.256 -68.9784
35.2071 107.59 -56.0764
51.2105 110.48 -28.3804
37.1764 108.655 -53.4096
40.6472 108.431 -52.1239
32.6566 108.82 -60.4016
44.8463 108.82 -51.5452
53.1771 107.916 -50.4368
47.1015 111.303 -36.31
49.1419 111.755 -32.3554
17.758 109.657 -71.226
31.0147 108.747 -66.5387
48.3485 109.202 -51.4729
51.9054 113.297 -26.6394
21.3727 110.035 -71.072
25.2075 109.118 -73.2301
27.0981 109.347 -70.6204
34.6062 110.723 -57.749
23.2844 111.1 -68.447
36.5671 111.793 -55.0883
42.1375 111.331 -53.5133
55.9712 109.945 -50.8789
49.1794 113.871 -34.8003
51.2415 114.102 -32.0661
33.0295 111.237 -65.0749
34.3064 113.331 -53.0226
45.5858 111.935 -52.244
53.4264 110.306 -55.2
51.1623 111.237 -51.9007
51.9149 115.426 -29.1047
52.606 116.124 -24.8943
18.5538 112.77 -71.884
37.4762 112.77 -58.136
49.9522 111.598 -55.252
48.5684 114.881 -38.9525
22.0471 113.37 -70.582
39.7454 113.727 -60.1956
45.0459 113.965 -55.1084
55.4243 112.776 -53.7485
51.3493 116.345 -38.168
50.5849 117.058 -35.0152
36.7772 113.599 -67.2963
51.2283 118.632 -30.8396
20.1452 115.629 -73.1998
23.7472 115.146 -73.055
36.4807 115.146 -63.8036
42.4317 115.388 -58.2438
49.2835 114.905 -55.7379
54.0975 118.043 -36.1714
28.1196 115.245 -73.5864
45.9396 115.731 -58.1674
52.7604 115.245 -55.6839
58.9368 114.516 -54.9046
30.7835 116.068 -71.651
39.2518 116.558 -63.0263
53.4649 119.252 -39.1032
51.9876 120.231 -35.2322
54.0281 120.721 -31.2776
37.4432 116.892 -66.8125
41.1719 117.631 -60.3952
56.154 116.645 -54.4544
23.2012 118.211 -74.6878
25.8763 118.211 -72.7442
43.8527 118.46 -58.4475
47.9459 118.211 -56.7097
54.8075 121.192 -36.8916
56.0999 122.682 -28.5362
58.183 122.93 -25.7867
33.6732 118.038 -72.0237
51.4285 118.538 -56.6516
55.6076 121.039 -41.2546
10.6009 122.131 -72.7178
28.9069 119.109 -74.2505
37.7608 118.606 -70.2899
38.0103 119.613 -65.1644
40.6798 119.613 -63.2249
54.9663 118.606 -57.7894
54.0412 123.894 -32.5041
59.5805 124.901 -23.5353
41.0695 119.424 -67.886
44.1028 120.184 -61.974
46.7667 120.184 -60.0385
6.69164 124.837 -70.6138
34.2234 120.752 -70.3878
48.6882 121.263 -57.4064
54.8619 124.071 -39.3242
56.886 124.326 -36.6175
55.4134 125.858 -30.2711
57.4881 126.113 -27.5277
16.5264 123.63 -73.357
52.9811 121.06 -59.2317
57.7548 120.546 -58.2355
38.4225 121.878 -69.8091
43.0548 121.878 -66.4436
58.1868 128.347 -24.5479
59.602 128.864 -21.0475
45.7018 122.695 -64.5204
46.8501 123.216 -61.214
58.9387 126.863 -35.1262
35.7755 123.513 -71.7323
49.5083 124.038 -59.2827
55.778 122.989 -59.6718
54.1791 127.447 -39.8203
56.9104 127.447 -37.8359
40.4078 124.331 -68.3668
59.2198 123.276 -59.6433
39.3045 124.618 -71.6405
43.0548 125.149 -66.4436
52.9811 125.149 -59.2317
59.607 129.666 -33.4046
58.8785 131.526 -25.2814
45.7018 125.967 -64.5204
48.3488 125.967 -62.5973
63.6853 125.432 -53.9268
57.5702 130.247 -36.1204
56.437 126.247 -59.193
61.4173 124.901 -61.7549
54.8619 130.823 -39.3242
58.8861 132.169 -30.2201
33.6732 127.874 -72.0237
37.7608 127.603 -70.2899
41.174 127.332 -69.0461
50.9958 127.603 -60.6741
64.025 125.707 -59.8603
66.6327 125.707 -57.9658
56.1413 132.751 -33.4504
28.2424 128.967 -74.7333
43.0548 128.421 -66.4436
58.8767 134.42 -27.7548
45.7018 129.239 -64.5204
48.3488 129.239 -62.5973
54.4601 128.69 -60.6293
58.7249 127.593 -62.475
58.9068 134.178 -32.6772
31.0205 130.333 -73.9509
62.8003 127.848 -61.9862
24.7898 131.709 -76.0057
34.452 130.875 -72.6939
37.5462 131.431 -67.9737
40.9679 131.153 -66.7238
54.7325 136.71 -32.0018
57.4975 136.71 -29.9929
28.2424 132.252 -74.7333
43.6205 131.973 -64.7965
50.3341 131.693 -61.1549
52.9811 131.693 -59.2317
57.4876 138.404 -26.2919
47.0253 132.511 -63.5589
31.805 133.329 -74.617
47.5147 133.895 -60.7312
55.4134 139.557 -30.2711
34.452 134.147 -72.6939
36.8817 134.717 -68.4565
40.4078 134.147 -68.3668
55.3993 141.267 -26.5731
29.0311 135.252 -75.3964
42.2942 135.252 -65.7601
44.1918 135.538 -63.1454
52.7604 135.825 -55.6839
55.4243 135.825 -53.7485
22.2841 137.801 -72.8819
57.9775 137.224 -49.4212
58.1868 142.99 -24.5479
26.665 137.761 -73.4072
31.805 136.601 -74.617
32.8943 137.181 -71.3535
36.4373 136.601 -71.2515
47.6871 136.601 -63.0781
54.7325 142.691 -32.0018
39.0843 137.419 -69.3283
44.576 136.835 -67.8105
54.7057 144.421 -28.3131
24.2989 140.291 -71.4181
41.7313 138.237 -67.4052
45.0401 138.237 -65.0012
46.7667 139.117 -60.0385
54.3046 138.237 -58.2702
56.2205 138.53 -55.6421
57.4222 139.117 -52.2969
55.4002 145.868 -25.3364
54.728 147.042 -20.8805
34.6919 138.464 -74.9918
34.888 139.645 -69.905
57.9775 140.531 -49.4212
52.6296 145.845 -31.0575
50.9958 139.873 -60.6741
30.3574 140.99 -74.4327
37.6521 140.99 -69.1328
47.0253 140.691 -63.5589
53.9649 142.184 -52.3366
58.5498 142.782 -46.5334
54.0102 147.86 -28.8184
23.7472 143.311 -73.055
36.6687 140.908 -73.5555
41.0695 141.509 -67.886
43.7166 141.509 -65.9628
48.1792 142.11 -60.2484
53.6428 141.509 -58.7509
56.2898 141.509 -56.8278
56.0961 149.02 -26.0668
34.9995 142.629 -71.0601
44.8564 142.931 -62.6625
56.64 143.838 -50.393
26.7877 144.057 -74.5541
34.0329 142.537 -75.4705
38.2108 143.753 -67.4908
40.107 144.057 -64.8771
52.7604 144.057 -55.6839
56.4868 145.576 -46.7962
53.1771 146.102 -50.4368
22.9557 146.932 -72.394
29.5715 145.395 -73.7677
45.4348 145.703 -61.0062
56.3987 147.855 -44.388
55.4012 152.158 -27.8078
35.5525 146.217 -69.4222
42.8627 146.217 -64.111
50.621 147.144 -54.7661
53.7437 148.381 -47.553
25.9976 147.66 -73.8921
39.0843 146.417 -69.3283
38.1091 147.349 -66.3286
53.9649 148.798 -52.3366
40.773 148.996 -64.3932
44.7688 148.996 -61.4901
56.535 150.253 -47.9972
52.0944 149.819 -56.1677
56.7562 150.642 -52.7807
51.6576 151.324 -60.1933
54.0923 152.288 -54.7162
55.9159 153.252 -49.683
56.3588 154.859 -43.1809
43.1551 151.819 -67.6068
44.9468 152.465 -63.8329
46.7667 153.111 -60.0385
52.1666 153.61 -57.3514
55.0925 155.883 -46.5731
53.9054 155.737 -51.1438
56.2876 158.023 -40.7605
43.7166 154.596 -65.9628
47.6871 154.596 -63.0781
49.5083 155.253 -59.2827
53.4264 155.581 -55.2
56.3987 157.879 -44.388
44.8564 156.074 -62.6625
56.5861 157.394 -49.1961
39.5399 156.896 -66.5252
42.1982 157.717 -64.5938
48.2626 157.384 -61.4238
51.502 157.717 -57.8342
36.2171 158.539 -68.9393
56.4868 160.55 -46.7962
44.8564 159.36 -62.6625
38.8754 160.181 -67.008
50.9958 159.504 -60.6741
40.773 161.343 -64.3932
48.3488 160.322 -62.5973
30.6692 162.509 -70.498
35.6626 161.482 -70.5783
-0.880228 172.274 -61.2822
41.7313 161.958 -67.4052
45.2349 161.27 -67.3318
44.9468 162.302 -63.8329
-4.5042 173.49 -62.6791
39.0843 162.776 -69.3283
50.3341 162.776 -61.1549
2.92739 172.972 -62.224
26.9852 166.025 -69.4664
32.7814 165.459 -70.1995
47.6871 164.412 -63.0781
-1.58413 175.754 -61.7936
5.92103 174 -62.5212
36.2171 165.932 -68.9393
41.0695 165.23 -67.886
44.576 164.528 -67.8105
1.52802 176.431 -63.2407
31.8953 168.637 -68.3711
44.3783 166.866 -65.482
8.01166 176.584 -61.0022
47.0253 167.684 -63.5589
4.52728 177.446 -63.5338
35.2391 171.117 -65.9417
42.8627 170.039 -64.111
48.2626 169.679 -61.4238
1.52802 179.891 -63.2407
11.0831 178.085 -62.4789
7.41363 179.667 -62.6728
44.1028 172.045 -61.974
4.42562 181.256 -62.3716
14.0458 179.92 -62.7985
46.7667 173.691 -60.0385
11.0831 181.509 -62.4789
30.625 177.46 -61.8777
43.2645 175.251 -60.1109
31.127 179.036 -59.0408
46.5334 176.447 -56.4999
49.2141 176.447 -54.5522
52.6273 176.077 -53.3084
-1.58413 186.195 -61.7936
13.8537 183.222 -60.4659
17.5883 182.107 -61.4608
37.643 178.019 -60.487
40.7831 179.134 -54.4974
28.9145 181.464 -58.1761
34.773 179.597 -60.1
37.2471 180.718 -54.5942
44.3022 179.224 -54.4127
20.4325 183.434 -60.6305
37.4762 180.433 -58.136
24.6395 183.906 -58.8099
32.5704 182.022 -59.2282
47.7379 180.514 -53.1526
27.3821 184.754 -56.8174
35.2071 183.239 -56.0764
40.0351 182.861 -53.8047
44.1691 182.482 -52.0373
20.4325 186.831 -60.6305
23.1806 186.831 -58.6338
30.201 186.066 -56.0054
37.1764 185.302 -53.4096
25.9288 187.68 -56.6371
32.9379 186.912 -54.0169
-2.0791 192.384 -64.6254
28.677 188.529 -54.6405
41.4603 185.83 -54.0053
35.7428 188.216 -53.2151
-4.39973 194.896 -63.8393
0.934206 193.34 -64.9082
21.2113 189.839 -61.3007
23.1806 190.228 -58.6338
25.9288 191.077 -56.6371
31.5694 190.295 -55.0111
33.5528 191.533 -52.3341
2.65682 194.746 -67.3649
28.8325 192.833 -56.9996
26.0956 193.678 -58.9881
31.5694 193.678 -55.0111
-6.16853 199.783 -68.8326
30.7381 196.172 -53.143
-2.4415 199.842 -68.5969
11.2864 197.827 -64.8034
28.1483 196.216 -57.4967
29.0923 198.633 -49.3945
24.7271 197.061 -59.9823
1.3858 200.345 -69.5244
8.41829 199.939 -65.6511
14.146 199.126 -63.9618
27.915 199.126 -53.958
-6.0486 202.834 -69.9815
17.495 200.385 -60.2925
26.6964 199.161 -57.3155
30.6688 199.977 -51.9573
-2.0775 202.058 -72.0406
4.15644 202.058 -67.5114
21.1195 200.418 -60.1313
-1.62749 203.737 -69.2416
11.3923 201.679 -65.9625
24.7271 200.444 -59.9823
-7.19128 204.597 -73.2839
7.72704 203.357 -66.1533
14.9361 202.117 -64.6238
26.6158 202.117 -56.138
29.364 202.117 -54.1413
30.4228 51.9489 -31.3863
33.528 51.9489 -27.1123
28.3526 52.8294 -34.2357
31.9754 53.7099 -29.2493
34.5631 54.5904 -25.6877
29.9052 55.4709 -32.0987
33.2112 56.0179 -32.6523
35.2691 56.0179 -29.8199
37.8415 56.0179 -26.2793
39.4987 56.1291 -22.297
40.6496 57.119 -19.0117
37.0224 57.4246 -32.5105
38.1447 57.5392 -29.2645
39.7887 58.5274 -25.3005
42.7567 58.411 -22.9167
39.896 58.9286 -31.9579
43.2688 59.5555 -30.7183
34.2128 60.5402 -41.4815
38.6217 60.2971 -38.8158
42.9321 59.9324 -37.9869
41.1533 60.2971 -35.3314
42.1366 60.9049 -25.4715
45.0954 60.7833 -23.1004
14.5352 62.7614 -49.8512
41.7468 62.1449 -32.8132
45.6187 61.8948 -30.8865
39.4803 62.6277 -41.0367
6.07722 66.0559 -52.986
42.4289 63.3571 -38.6796
48.4678 63.3571 -30.3677
28.1126 64.8645 -49.8777
42.587 64.4737 -35.0593
31.5334 65.4654 -48.5721
44.6082 65.3334 -32.2775
25.6336 66.7279 -51.5885
33.9971 67.0527 -46.8824
47.9646 66.7818 -31.0603
29.0018 68.0495 -52.0565
50.8938 67.5008 -28.7299
45.8715 68.3552 -35.6425
43.2227 68.9283 -42.691
47.0864 68.647 -40.7755
49.079 68.647 -38.033
48.8027 69.9217 -33.3093
29.0018 71.4951 -52.0565
51.7258 70.6302 -30.9874
53.7266 70.6302 -28.2336
45.5323 71.0436 -44.6159
51.9949 71.0436 -35.7209
46.86 71.4465 -47.8924
47.5208 71.8893 -41.879
49.5093 71.8893 -39.142
53.9834 72.7351 -32.9839
28.9442 74.7896 -53.8371
48.8362 73.1276 -45.1723
52.8514 73.2786 -37.9446
55.9719 73.5808 -30.247
56.2275 74.0341 -24.7913
56.4183 74.3363 -21.1261
49.881 74.1209 -42.0331
6.81032 78.8273 -58.7822
46.8136 74.6541 -49.6576
54.8318 74.9632 -35.2189
10.7563 79.2441 -58.4549
49.7234 75.3366 -47.3539
52.2947 75.6492 -40.4122
57.7293 75.6492 -32.932
56.5512 76.2744 -27.7484
19.1229 79.1764 -57.1471
50.7579 76.3317 -44.2287
54.9777 76.9639 -31.6155
56.7277 77.438 -24.1029
54.2709 77.3303 -37.6922
7.26104 82.2086 -59.8631
47.2633 77.8478 -50.7399
57.1674 78.0093 -35.4067
58.4575 78.6554 -26.8259
49.2314 78.6849 -48.0311
56.469 79.5011 -29.5628
58.634 79.8276 -23.1803
13.1466 83.1516 -60.2689
51.1994 79.522 -45.3223
56.062 79.357 -40.3308
19.5757 83.36 -58.2252
30.8047 82.0262 -56.3802
54.9027 81.0259 -33.42
61.0345 81.3594 -21.5777
8.16861 85.4075 -62.0166
16.1697 84.7337 -57.8092
47.715 81.0277 -51.8195
51.5987 80.8592 -48.1754
57.1037 81.1961 -37.1958
57.9604 82.0384 -27.5101
56.7277 82.5438 -24.1029
24.445 84.4159 -58.3283
33.6758 83.2245 -57.5324
57.7293 82.3736 -32.932
11.1463 86.8246 -61.3207
37.0812 83.7299 -56.2478
54.0485 82.5264 -44.8034
56.4984 82.5264 -41.4314
63.4999 82.8703 -28.3921
60.446 83.7299 -24.0889
14.1756 87.528 -58.8526
50.0915 83.1863 -51.9511
59.7056 84.0547 -30.212
60.1315 84.923 -21.1192
57.535 84.369 -38.3034
58.5797 84.5444 -35.1642
6.15812 89.9871 -63.0825
10.6308 90.3327 -62.0302
24.3966 88.5439 -60.0963
47.6788 85.8608 -53.5706
52.4981 85.503 -50.3401
54.9811 85.6819 -45.2212
56.0085 85.8608 -42.1058
58.2234 86.5763 -32.252
62.0239 86.2186 -30.4237
63.9919 86.2186 -27.7149
59.8293 87.8284 -18.1326
44.278 86.875 -56.5501
59.6324 88.3199 -21.8062
57.9684 87.528 -39.4082
59.008 87.7104 -36.276
7.13353 93.3319 -63.4413
26.8282 90.7547 -60.1521
50.0584 87.9934 -53.698
53.9619 87.9934 -48.3253
59.7056 89.0979 -30.212
61.6818 89.0979 -27.4919
61.7295 90.2025 -17.2184
21.9135 92.1684 -61.8127
52.0101 88.8236 -51.0117
55.9136 88.8236 -45.639
56.9369 89.0094 -42.5292
58.6465 89.7527 -33.3709
59.9489 90.496 -24.7732
60.0425 91.6109 -14.4365
37.043 91.1542 -58.0017
47.1578 89.8412 -55.9891
61.0345 91.5293 -21.5777
57.9684 90.8624 -39.4082
59.9283 90.8624 -36.7107
62.5159 91.241 -29.7465
61.1638 93.5126 -11.1918
61.4057 93.8911 -7.45636
49.1136 91.505 -53.2971
54.4116 91.1229 -49.4077
60.972 91.887 -33.5728
58.7924 92.6512 -29.7675
42.7791 92.5296 -60.3145
56.3592 91.9513 -46.7269
56.4479 92.3368 -43.2022
60.7728 93.4934 -27.0418
62.7531 93.4934 -24.3161
59.2522 96.1922 -5.31646
51.5584 93.1687 -49.9321
60.793 92.9742 -38.9231
59.651 96.0863 -13.274
58.8412 93.8043 -41.6095
61.0398 94.5893 -31.7781
60.7774 97.1404 -10.0224
45.179 94.6344 -60.4139
53.9619 94.6344 -48.3253
60.4183 95.0304 -36.0363
63.0079 95.4264 -29.0693
60.9431 96.4163 -23.4047
48.5467 95.0651 -59.1813
55.9136 95.4646 -45.639
60.0107 99.2592 -7.67504
61.1555 99.4589 -4.39809
42.2891 96.6976 -60.9889
56.9369 96.4961 -42.5292
57.9684 96.6976 -39.4082
62.1759 97.5034 -26.8119
57.8552 100.727 -5.53795
59.5638 97.9376 -33.8098
61.5318 97.9376 -31.1009
60.6596 100.376 -11.8859
45.179 97.9549 -60.4139
51.9021 97.1352 -57.9656
51.9479 97.5451 -54.4999
53.5586 98.3648 -45.4778
58.1297 102.873 -1.75752
36.9788 100.025 -61.4927
55.6276 99.6117 -39.2274
58.517 99.4051 -36.9518
58.9961 102.712 -9.0716
42.2891 100.032 -60.9889
48.0608 99.1984 -59.8501
53.6595 100.449 -41.9362
58.5328 102.741 -16.5144
58.7428 103.992 -6.01756
57.3916 105.034 0.629148
59.5638 101.286 -33.8098
58.7563 104.018 -12.8043
39.391 102.123 -61.5752
45.179 101.275 -60.4139
50.4902 100.852 -56.5062
55.6883 102.335 -37.4426
57.9904 106.149 -3.65055
35.5236 103.601 -61.7943
52.625 102.746 -45.0614
57.9148 102.319 -41.1833
57.0231 105.31 -18.5924
57.9814 106.164 -10.4682
57.5411 107.873 2.53622
47.5947 102.72 -58.7902
54.589 103.582 -42.3582
52.8514 104.443 -37.9446
56.3426 106.812 -14.4251
59.1221 107.243 -7.19684
56.3626 108.535 -0.787085
42.2891 104.2 -60.9889
38.899 105.471 -62.2524
51.1087 105.034 -48.8498
55.5133 107.878 -20.6704
55.5636 108.972 -12.0946
56.4562 109.629 -5.76225
59.4495 110.285 3.46161
35.4966 106.749 -63.5328
45.179 105.426 -60.4139
47.6187 105.426 -57.056
51.1994 106.308 -45.3223
51.3065 106.749 -41.7723
57.597 109.837 -9.2959
48.7393 107.145 -48.7083
55.7531 107.59 -35.6521
59.5638 107.145 -33.8098
41.7991 107.534 -61.6633
51.8613 108.655 -39.3074
38.4069 108.82 -62.9296
47.6467 108.142 -55.3161
56.3426 111.98 -14.4251
