ply
format ascii 1.0
element vertex 3024
property float x
property float y
property float z
end_header
385 503 105.167
386 503 104.833
387 503 104
388 503 103.833
389 503 103.167
390 503 102.833
391 503 102.333
392 503 102
393 503 101.833
394 503 101.5
395 503 101
396 503 100.5
397 503 99.6667
398 503 99.1667
399 503 98.6667
400 503 98.1667
401 503 97.6667
402 503 97.3333
403 503 96.6667
404 503 96.1667
405 503 95.8333
406 503 95.1667
407 503 94.6667
408 503 94.3333
409 503 93.6667
410 503 76.8333
411 503 8.66667
412 503 0.166667
432 503 15.1667
433 503 50.6667
434 503 44
435 503 41.3333
436 503 39.6667
437 503 37.1667
438 503 33.1667
439 503 33
440 503 33
441 503 33
442 503 33
443 503 33
444 503 2.33333
457 503 0.166667
502 503 0.333333
503 503 10.1667
504 503 43.1667
505 503 52.6667
506 503 53.8333
507 503 55.5
508 503 57.5
509 503 59.5
510 503 61.3333
511 503 62.6667
512 503 66.1667
513 503 67.8333
514 503 71.5
515 503 79
516 503 84.3333
517 503 86.5
518 503 86.5
519 503 86.3333
520 503 86.3333
521 503 86.1667
522 503 85.8333
523 503 85.6667
524 503 85.3333
525 503 85
526 503 84.8333
527 503 84.5
528 503 84.3333
529 503 84
530 503 83.6667
531 503 83.1667
532 503 82.8333
533 503 82.5
534 503 82.3333
535 503 82
536 503 81.1667
537 503 80.6667
538 503 80.3333
539 503 79.8333
540 503 79.3333
541 503 78.6667
542 503 78.3333
543 503 77.8333
544 503 77
545 503 76.1667
546 503 75.6667
547 503 74.5
248 504 33.6667
249 504 78.6667
250 504 105.333
251 504 114.5
252 504 115.833
253 504 117.333
254 504 119
255 504 119.167
256 504 119.833
257 504 120.5
258 504 121
259 504 121.833
260 504 122.167
261 504 122.333
262 504 122.667
263 504 123.333
264 504 123.667
265 504 124.333
266 504 124.667
267 504 125
268 504 125.333
269 504 125.667
270 504 125.667
271 504 125.833
272 504 126
273 504 126
274 504 126.333
275 504 126.667
276 504 127
277 504 127.167
278 504 127.167
279 504 127.333
280 504 127.667
281 504 127.833
282 504 128.167
283 504 128.333
284 504 128.5
285 504 129
286 504 129
287 504 129.167
288 504 129.167
289 504 129.333
290 504 129.333
291 504 129.667
292 504 129.667
293 504 130
294 504 130.167
295 504 130.333
296 504 130.667
297 504 130.833
298 504 131
299 504 131.833
300 504 132.167
301 504 132.167
302 504 132.167
303 504 132.833
304 504 133
305 504 133
306 504 133.167
307 504 133.333
308 504 134.167
309 504 134.333
310 504 134.667
311 504 134.833
312 504 135.333
313 504 135.5
314 504 135.667
315 504 136.167
316 504 136.167
317 504 136.667
318 504 136.833
319 504 136.833
320 504 137.333
321 504 137.5
322 504 137.667
323 504 137.667
324 504 137.833
325 504 138.167
326 504 138.333
327 504 138.5
328 504 138.5
329 504 138.667
330 504 138.333
331 504 104.833
332 504 24.3333
333 504 0.166667
366 504 12.8333
367 504 114.667
368 504 122
369 504 120
370 504 118
371 504 116.333
372 504 115
373 504 113.333
374 504 112.333
375 504 112
376 504 110.333
377 504 109.167
378 504 108.833
379 504 107.833
380 504 107.5
381 504 107
382 504 106.333
383 504 106.167
384 504 105.667
385 504 105.333
386 504 105.167
387 504 105
388 504 104
389 504 103.833
390 504 103.333
391 504 102.833
392 504 102.167
393 504 102
394 504 101.833
395 504 101.333
396 504 100.833
397 504 100
398 504 99.5
399 504 99.1667
400 504 98.5
401 504 98
402 504 97.5
403 504 97
404 504 96.3333
405 504 95.8333
406 504 95.1667
407 504 94.8333
408 504 94.3333
409 504 93.1667
410 504 61.8333
411 504 1.66667
412 504 0.166667
432 504 53.6667
433 504 48.5
434 504 43
435 504 41.3333
436 504 39.6667
437 504 37.1667
438 504 36.1667
439 504 36.1667
440 504 36.1667
441 504 36.1667
442 504 35.6667
443 504 6
457 504 0.166667
503 504 2.5
504 504 10.3333
505 504 35.5
506 504 47.6667
507 504 52.3333
508 504 54.1667
509 504 57.6667
510 504 60
511 504 60.8333
512 504 63.5
513 504 65
514 504 67.6667
515 504 74.1667
516 504 81.3333
517 504 85.5
518 504 86.5
519 504 86.5
520 504 86.3333
521 504 86.1667
522 504 85.8333
523 504 85.6667
524 504 85.3333
525 504 85.1667
526 504 84.8333
527 504 84.5
528 504 84.3333
529 504 84
530 504 83.6667
531 504 83.1667
532 504 82.6667
533 504 82.5
534 504 82.3333
535 504 81.5
536 504 81.1667
537 504 80.6667
538 504 80.3333
539 504 79.3333
540 504 78.8333
541 504 78.3333
542 504 78.1667
543 504 76.6667
544 504 75.8333
545 504 75.3333
546 504 73
248 505 44.8333
249 505 99.1667
250 505 112.333
251 505 115.833
252 505 116.833
253 505 118
254 505 119
255 505 119.167
256 505 119.833
257 505 120.333
258 505 121
259 505 121.833
260 505 122.167
261 505 122.333
262 505 122.5
263 505 123
264 505 123.667
265 505 124.333
266 505 124.667
267 505 124.833
268 505 125.167
269 505 125.5
270 505 125.5
271 505 125.833
272 505 126
273 505 126
274 505 126.333
275 505 126.667
276 505 127
277 505 127
278 505 127.167
279 505 127.333
280 505 127.5
281 505 127.667
282 505 128
283 505 128.333
284 505 128.5
285 505 128.667
286 505 128.833
287 505 129
288 505 129
289 505 129.167
290 505 129.167
291 505 129.167
292 505 129.167
293 505 129.667
294 505 130
295 505 130.167
296 505 130.333
297 505 130.667
298 505 131
299 505 131.333
300 505 131.667
301 505 132
302 505 132
303 505 132.333
304 505 132.833
305 505 132.833
306 505 132.833
307 505 133.167
308 505 133.667
309 505 134
310 505 134.333
311 505 134.5
312 505 135
313 505 135.167
314 505 135.667
315 505 136
316 505 136.167
317 505 136.5
318 505 136.5
319 505 136.833
320 505 136.833
321 505 137
322 505 137.5
323 505 137.5
324 505 137.5
325 505 137.833
326 505 138.167
327 505 138.333
328 505 138.333
329 505 138.5
330 505 138.5
331 505 134.667
332 505 82.3333
333 505 3
366 505 13.1667
367 505 116.5
368 505 126.833
369 505 122.167
370 505 119.5
371 505 118.5
372 505 117
373 505 115.667
374 505 114.333
375 505 112.333
376 505 112
377 505 111.667
378 505 109.667
379 505 109
380 505 108.333
381 505 107.167
382 505 107
383 505 106.833
384 505 106.167
385 505 105.667
386 505 105.5
387 505 105.167
388 505 105
389 505 104
390 505 103.833
391 505 103.5
392 505 102.833
393 505 102.167
394 505 101.833
395 505 101.667
396 505 101
397 505 100.5
398 505 99.6667
399 505 99.3333
400 505 98.8333
401 505 98.1667
402 505 97.6667
403 505 97.1667
404 505 96.6667
405 505 95.8333
406 505 95.6667
407 505 95
408 505 94.5
409 505 67.1667
410 505 6.33333
431 505 57.8333
432 505 52.8333
433 505 43.5
434 505 42.1667
435 505 41.3333
436 505 39.6667
437 505 37.1667
438 505 37.1667
439 505 37.1667
440 505 37.1667
441 505 37.1667
442 505 24
457 505 0.166667
505 505 3.5
506 505 16.5
507 505 30.5
508 505 45.5
509 505 54.8333
510 505 58.6667
511 505 60
512 505 61.5
513 505 63
514 505 66.6667
515 505 70
516 505 75.6667
517 505 82
518 505 86.5
519 505 86.5
520 505 86.3333
521 505 86.1667
522 505 85.8333
523 505 85.6667
524 505 85.3333
525 505 85.1667
526 505 84.6667
527 505 84.3333
528 505 84.1667
529 505 83.8333
530 505 83.5
531 505 83
532 505 82.6667
533 505 82.3333
534 505 82.1667
535 505 81.5
536 505 80.6667
537 505 80.1667
538 505 80.1667
539 505 79
540 505 78.5
541 505 78
542 505 77
543 505 76
544 505 75.1667
247 506 27.6667
248 506 69.6667
249 506 107.667
250 506 113.833
251 506 116.5
252 506 117
253 506 118.5
254 506 119
255 506 119.333
256 506 119.833
257 506 120.333
258 506 120.5
259 506 121.333
260 506 122.5
261 506 122.5
262 506 122.5
263 506 123.167
264 506 123.667
265 506 124.333
266 506 124.5
267 506 124.833
268 506 125
269 506 125.167
270 506 125.5
271 506 125.667
272 506 125.667
273 506 125.833
274 506 126.333
275 506 126.667
276 506 126.667
277 506 127
278 506 127.167
279 506 127.333
280 506 127.333
281 506 127.5
282 506 127.833
283 506 128.167
284 506 128.5
285 506 128.5
286 506 128.667
287 506 128.833
288 506 128.833
289 506 129.167
290 506 129.167
291 506 129.167
292 506 129.167
293 506 129.5
294 506 129.5
295 506 130
296 506 130.333
297 506 130.333
298 506 130.667
299 506 130.667
300 506 130.667
301 506 131.333
302 506 132
303 506 132.333
304 506 132.667
305 506 132.667
306 506 132.667
307 506 133.167
308 506 133.5
309 506 134
310 506 134
311 506 134.5
312 506 134.833
313 506 134.833
314 506 135.5
315 506 135.833
316 506 136.167
317 506 136.5
318 506 136.5
319 506 136.5
320 506 136.667
321 506 136.667
322 506 136.667
323 506 137
324 506 137.167
325 506 137.5
326 506 137.667
327 506 137.667
328 506 137.833
329 506 137.833
330 506 138.333
331 506 137.833
332 506 131.833
333 506 96.3333
334 506 3.33333
366 506 13.1667
367 506 117.333
368 506 129
369 506 125.667
370 506 122.167
371 506 119.5
372 506 118
373 506 116
374 506 114.833
375 506 113.333
376 506 112.333
377 506 111.833
378 506 111.167
379 506 109.5
380 506 108.833
381 506 108.333
382 506 107.5
383 506 107
384 506 106.667
385 506 106.333
386 506 106
387 506 105.5
388 506 105.167
389 506 104.833
390 506 104.167
391 506 103.833
392 506 103.167
393 506 102.833
394 506 102.167
395 506 101.667
396 506 101.5
397 506 101
398 506 100.167
399 506 99.6667
400 506 99.1667
401 506 98.5
402 506 97.8333
403 506 97.3333
404 506 96.8333
405 506 96.1667
406 506 95.8333
407 506 89.8333
408 506 31.6667
409 506 2.16667
430 506 35.3333
431 506 55.8333
432 506 49.3333
433 506 42
434 506 41.6667
435 506 41
436 506 39.6667
437 506 39.6667
438 506 39.6667
439 506 39.6667
440 506 39.6667
441 506 39.5
442 506 0.166667
457 506 0.166667
458 506 1.5
459 506 1.83333
460 506 1.83333
461 506 1.83333
462 506 1.83333
463 506 1.83333
464 506 1.66667
465 506 0.5
506 506 3.33333
507 506 10.5
508 506 34.5
509 506 52.1667
510 506 54.5
511 506 57
512 506 59.1667
513 506 60.6667
514 506 63.3333
515 506 67.1667
516 506 72.5
517 506 77.5
518 506 84
519 506 86.5
520 506 86.3333
521 506 86.1667
522 506 85.8333
523 506 85.6667
524 506 85.3333
525 506 85
526 506 84.6667
527 506 84.3333
528 506 84.1667
529 506 83.6667
530 506 83.3333
531 506 83
532 506 82.5
533 506 82.3333
534 506 81.8333
535 506 81.3333
536 506 80.5
537 506 80
538 506 79.5
539 506 78.8333
540 506 78
541 506 77.6667
542 506 75.8333
543 506 75.3333
247 507 42.1667
248 507 93.1667
249 507 112.333
250 507 115.5
251 507 117.167
252 507 117.5
253 507 118.5
254 507 119.167
255 507 120
256 507 120.167
257 507 120.5
258 507 120.667
259 507 121.167
260 507 122.5
261 507 122.5
262 507 122.667
263 507 123.167
264 507 123.667
265 507 124.333
266 507 124.5
267 507 124.833
268 507 124.833
269 507 125.167
270 507 125.5
271 507 125.667
272 507 125.667
273 507 125.833
274 507 126
275 507 126.333
276 507 126.333
277 507 126.5
278 507 126.667
279 507 126.833
280 507 126.833
281 507 126.833
282 507 127.5
283 507 127.833
284 507 128.333
285 507 128.333
286 507 128.333
287 507 128.333
288 507 128.5
289 507 128.833
290 507 128.833
291 507 129.167
292 507 129.167
293 507 129.333
294 507 129.333
295 507 129.667
296 507 129.833
297 507 130
298 507 130
299 507 130
300 507 130
301 507 130.333
302 507 131.667
303 507 132
304 507 132.333
305 507 132.5
306 507 132.5
307 507 133
308 507 133
309 507 133.667
310 507 134
311 507 134.333
312 507 134.333
313 507 134.5
314 507 135.5
315 507 135.5
316 507 135.5
317 507 135.833
318 507 136
319 507 136.167
320 507 136.5
321 507 136.5
322 507 136.5
323 507 136.667
324 507 137
325 507 137.167
326 507 137.167
327 507 137.667
328 507 137.667
329 507 137.833
330 507 138
331 507 138
332 507 137.833
333 507 137.167
334 507 118.833
335 507 10.1667
366 507 13.1667
367 507 117.167
368 507 130.333
369 507 126.667
370 507 123.833
371 507 121.667
372 507 120.167
373 507 117.5
374 507 116.333
375 507 115.333
376 507 113.333
377 507 112.833
378 507 111.5
379 507 111
380 507 109.667
381 507 109
382 507 108.333
383 507 107.667
384 507 107.333
385 507 107
386 507 106.667
387 507 106
388 507 105.5
389 507 105.333
390 507 104.667
391 507 104.167
392 507 104
393 507 103.333
394 507 102.5
395 507 102
396 507 101.667
397 507 101.333
398 507 100.5
399 507 99.8333
400 507 99.3333
401 507 98.6667
402 507 98
403 507 97.6667
404 507 97
405 507 96.1667
406 507 92.6667
407 507 24.1667
408 507 1.16667
429 507 1.33333
430 507 55
431 507 53
432 507 47.6667
433 507 42
434 507 41.6667
435 507 41
436 507 40.3333
437 507 40.3333
438 507 40.3333
439 507 40.3333
440 507 37.8333
441 507 3
457 507 0.333333
458 507 4.83333
459 507 6.16667
460 507 6.16667
461 507 6.16667
462 507 6.16667
463 507 2.83333
464 507 2.83333
465 507 0.333333
507 507 0.166667
508 507 11.1667
509 507 33.5
510 507 39.6667
511 507 46.6667
512 507 52.8333
513 507 59.1667
514 507 61
515 507 65.1667
516 507 69.6667
517 507 75.3333
518 507 82.8333
519 507 86.5
520 507 86.3333
521 507 86.1667
522 507 85.8333
523 507 85.5
524 507 85.1667
525 507 84.8333
526 507 84.5
527 507 84.3333
528 507 84
529 507 83.5
530 507 83.3333
531 507 82.8333
532 507 82.3333
533 507 82.1667
534 507 81.5
535 507 80.6667
536 507 80.1667
537 507 79.1667
538 507 79
539 507 78
540 507 77.5
541 507 76.6667
246 508 11.8333
247 508 61.3333
248 508 102
249 508 113.833
250 508 115.667
251 508 117.333
252 508 117.833
253 508 118.5
254 508 119.167
255 508 120.167
256 508 120.167
257 508 120.5
258 508 120.667
259 508 121.167
260 508 122.5
261 508 122.667
262 508 122.667
263 508 123
264 508 123.667
265 508 124.333
266 508 124.5
267 508 124.667
268 508 124.833
269 508 125
270 508 125.5
271 508 125.667
272 508 125.667
273 508 125.833
274 508 126
275 508 126.333
276 508 126.333
277 508 126.333
278 508 126.667
279 508 126.833
280 508 126.833
281 508 126.833
282 508 127.333
283 508 127.5
284 508 127.833
285 508 128
286 508 128.167
287 508 128.333
288 508 128.5
289 508 128.833
290 508 128.833
291 508 129
292 508 129
293 508 129
294 508 129.167
295 508 129.5
296 508 129.5
297 508 130
298 508 130
299 508 130
300 508 130
301 508 130.333
302 508 131.167
303 508 131.333
304 508 132
305 508 132.167
306 508 132.333
307 508 132.5
308 508 132.833
309 508 133
310 508 133.667
311 508 133.833
312 508 134
313 508 134
314 508 134.833
315 508 135
316 508 135.167
317 508 135.5
318 508 135.5
319 508 135.833
320 508 135.833
321 508 136.167
322 508 136.167
323 508 136.167
324 508 136.5
325 508 136.833
326 508 137
327 508 137
328 508 137
329 508 137.5
330 508 137.5
331 508 137.5
332 508 137.5
333 508 137.5
334 508 137.167
335 508 121.667
336 508 11.3333
366 508 3.16667
367 508 43.6667
368 508 44.8333
369 508 44.8333
370 508 44.1667
371 508 44
372 508 51
373 508 113.333
374 508 117.5
375 508 116.333
376 508 114.667
377 508 114
378 508 112.5
379 508 111.667
380 508 111.167
381 508 110.167
382 508 109
383 508 108
384 508 107.833
385 508 107.333
386 508 107
387 508 106.5
388 508 106.167
389 508 105.5
390 508 105.167
391 508 104.833
392 508 104
393 508 103.833
394 508 103.333
395 508 102.667
396 508 101.667
397 508 101.5
398 508 101
399 508 100
400 508 99.5
401 508 98.6667
402 508 98.3333
403 508 97.6667
404 508 97.3333
405 508 96.3333
406 508 71.5
407 508 1.5
429 508 35
430 508 53
431 508 49
432 508 46.6667
433 508 42
434 508 41.6667
435 508 41
436 508 41
437 508 41
438 508 41
439 508 41
440 508 23.6667
453 508 2.5
457 508 6.33333
458 508 9
459 508 9
460 508 9
461 508 9
462 508 8
463 508 4.83333
464 508 2.5
465 508 0.166667
508 508 8.16667
509 508 27.1667
510 508 34.6667
511 508 40
512 508 49.1667
513 508 56
514 508 60
515 508 63.5
516 508 69
517 508 75.3333
518 508 82.6667
519 508 86.6667
520 508 86.3333
521 508 86.1667
522 508 85.8333
523 508 85.3333
524 508 85.1667
525 508 84.8333
526 508 84.5
527 508 84.1667
528 508 83.8333
529 508 83.3333
530 508 83.1667
531 508 82.5
532 508 82.3333
533 508 81.6667
534 508 81.1667
535 508 80
536 508 79.5
537 508 78.5
538 508 78
539 508 76.5
540 508 76
541 508 75
246 509 28.5
247 509 82.8333
248 509 104.667
249 509 113.833
250 509 115.833
251 509 117.333
252 509 117.833
253 509 118.5
254 509 119
255 509 120
256 509 120.333
257 509 120.5
258 509 120.667
259 509 121.167
260 509 122.333
261 509 122.5
262 509 122.5
263 509 122.833
264 509 123.667
265 509 124
266 509 124.333
267 509 124.5
268 509 124.667
269 509 124.833
270 509 125.5
271 509 125.5
272 509 125.5
273 509 125.833
274 509 126
275 509 126
276 509 126.333
277 509 126.333
278 509 126.5
279 509 126.667
280 509 126.667
281 509 127
282 509 127.5
283 509 127.5
284 509 127.833
285 509 128
286 509 128.167
287 509 128.333
288 509 128.333
289 509 128.5
290 509 128.5
291 509 128.667
292 509 128.667
293 509 128.667
294 509 129
295 509 129.167
296 509 129.5
297 509 129.667
298 509 129.833
299 509 130
300 509 130
301 509 130
302 509 130.5
303 509 131.167
304 509 131.333
305 509 131.833
306 509 132
307 509 132
308 509 132.667
309 509 133
310 509 133.167
311 509 133.167
312 509 133.667
313 509 134
314 509 134.333
315 509 134.333
316 509 134.667
317 509 134.833
318 509 135.5
319 509 135.5
320 509 135.5
321 509 135.5
322 509 136.167
323 509 136.167
324 509 136.333
325 509 136.5
326 509 136.833
327 509 136.833
328 509 136.833
329 509 137
330 509 137.167
331 509 137.5
332 509 137.5
333 509 137.5
334 509 137.167
335 509 137
336 509 126.167
337 509 50
372 509 0.166667
373 509 38.5
374 509 110.5
375 509 116.833
376 509 116.333
377 509 115.333
378 509 114.167
379 509 112.333
380 509 112
381 509 111.333
382 509 110.333
383 509 109
384 509 108.167
385 509 107.833
386 509 107.167
387 509 107
388 509 106.667
389 509 106.333
390 509 105.667
391 509 105.167
392 509 104.833
393 509 104.167
394 509 103.667
395 509 103.333
396 509 102.667
397 509 101.667
398 509 101.333
399 509 100.333
400 509 99.6667
401 509 99.1667
402 509 98.6667
403 509 98
404 509 97.3333
405 509 90.1667
406 509 22.5
428 509 20.6667
429 509 54
430 509 46.1667
431 509 40.6667
432 509 40.5
433 509 40
434 509 40
435 509 40
436 509 40
437 509 40
438 509 41.6667
439 509 41.3333
440 509 4.5
452 509 3.83333
453 509 8.66667
454 509 0.666667
457 509 8.83333
458 509 9.16667
459 509 11
460 509 11.6667
461 509 11.8333
462 509 3
463 509 1.66667
464 509 0.166667
508 509 8.16667
509 509 27.1667
510 509 34.5
511 509 38.8333
512 509 44.3333
513 509 53
514 509 59
515 509 63.5
516 509 69
517 509 75.3333
518 509 82.6667
519 509 86.6667
520 509 86.3333
521 509 86
522 509 85.8333
523 509 85.3333
524 509 85.1667
525 509 84.6667
526 509 84.5
527 509 84.1667
528 509 83.6667
529 509 83.3333
530 509 82.6667
531 509 82.5
532 509 82.1667
533 509 81.5
534 509 80.6667
535 509 79.3333
536 509 79.1667
537 509 78.3333
538 509 77
539 509 76
540 509 74.1667
246 510 54.3333
247 510 93.5
248 510 108.167
249 510 114.167
250 510 116
251 510 117
252 510 117.333
253 510 118
254 510 118.167
255 510 119.5
256 510 120
257 510 120.167
258 510 120.667
259 510 121.167
260 510 122.333
261 510 122.333
262 510 122.333
263 510 122.833
264 510 123.333
265 510 123.833
266 510 123.833
267 510 124
268 510 124.333
269 510 124.5
270 510 125
271 510 125.5
272 510 125.5
273 510 125.833
274 510 125.833
275 510 126
276 510 126.333
277 510 126.333
278 510 126.333
279 510 126.5
280 510 126.5
281 510 126.667
282 510 127.333
283 510 127.333
284 510 127.333
285 510 127.667
286 510 127.833
287 510 128.167
288 510 128.333
289 510 128.333
290 510 128.5
291 510 128.5
292 510 128.5
293 510 128.5
294 510 128.833
295 510 128.833
296 510 129.167
297 510 129.333
298 510 129.5
299 510 129.833
300 510 129.833
301 510 130
302 510 130.5
303 510 131
304 510 131
305 510 131.667
306 510 131.667
307 510 131.833
308 510 132
309 510 132.333
310 510 132.5
311 510 133
312 510 133.5
313 510 133.667
314 510 133.667
315 510 134.333
316 510 134.667
317 510 134.667
318 510 135
319 510 135.167
320 510 135.333
321 510 135.333
322 510 135.667
323 510 135.833
324 510 136
325 510 136.333
326 510 136.333
327 510 136.5
328 510 136.833
329 510 136.833
330 510 137
331 510 137.333
332 510 137.333
333 510 137.333
334 510 137.167
335 510 136.833
336 510 136.833
337 510 133
338 510 124.833
339 510 119.333
340 510 118.333
341 510 116.833
342 510 113.167
343 510 106.167
344 510 1.66667
373 510 2.16667
374 510 42.8333
375 510 116.667
376 510 118.333
377 510 116.5
378 510 115.5
379 510 114.167
380 510 112.5
381 510 112
382 510 111.5
383 510 110.333
384 510 109
385 510 108.333
386 510 107.833
387 510 107.333
388 510 107
389 510 106.833
390 510 106.167
391 510 105.5
392 510 105.167
393 510 104.833
394 510 103.833
395 510 103.5
396 510 102.833
397 510 102
398 510 101.5
399 510 100.333
400 510 99.6667
401 510 99.1667
402 510 98.6667
403 510 97.5
404 510 94.5
405 510 36
427 510 4
428 510 40.6667
429 510 50
430 510 41.6667
431 510 39.8333
432 510 39.8333
433 510 39.5
434 510 39.5
435 510 39.5
436 510 39.5
437 510 40
438 510 28.6667
439 510 1.66667
451 510 1.5
452 510 21.5
453 510 11.5
454 510 0.666667
456 510 3
457 510 6.66667
458 510 9.5
459 510 11.5
460 510 12.3333
461 510 2
462 510 2
463 510 0.666667
508 510 8.16667
509 510 27.1667
510 510 34.5
511 510 38.6667
512 510 43.8333
513 510 52.3333
514 510 58.6667
515 510 63.5
516 510 69
517 510 75.3333
518 510 82.6667
519 510 86.5
520 510 86.3333
521 510 86
522 510 85.6667
523 510 85.3333
524 510 84.8333
525 510 84.6667
526 510 84.3333
527 510 83.8333
528 510 83.6667
529 510 83
530 510 82.5
531 510 82.3333
532 510 81.6667
533 510 80.5
534 510 79.3333
535 510 78.8333
536 510 78.5
537 510 76.8333
538 510 76
245 511 25.1667
246 511 78.1667
247 511 106.167
248 511 112.167
249 511 115.667
250 511 116
251 511 117.167
252 511 117.333
253 511 118
254 511 118
255 511 118.667
256 511 120
257 511 120.333
258 511 120.833
259 511 121.333
260 511 122
261 511 122.167
262 511 122.167
263 511 122.833
264 511 123.167
265 511 123.667
266 511 123.833
267 511 123.833
268 511 124.167
269 511 124.5
270 511 125
271 511 125.167
272 511 125.167
273 511 125.5
274 511 125.667
275 511 125.833
276 511 126
277 511 126.167
278 511 126.333
279 511 126.5
280 511 126.5
281 511 126.5
282 511 127.167
283 511 127.167
284 511 127.167
285 511 127.167
286 511 127.5
287 511 127.833
288 511 128.167
289 511 128.333
290 511 128.333
291 511 128.5
292 511 128.5
293 511 128.5
294 511 128.5
295 511 128.667
296 511 129
297 511 129
298 511 129.333
299 511 129.5
300 511 129.833
301 511 130
302 511 130.167
303 511 130.5
304 511 130.5
305 511 130.667
306 511 131.167
307 511 131.833
308 511 131.833
309 511 132.167
310 511 132.167
311 511 132.667
312 511 133.167
313 511 133.5
314 511 133.5
315 511 133.667
316 511 134
317 511 134
318 511 134
319 511 134.667
320 511 135
321 511 135.167
322 511 135.333
323 511 135.667
324 511 135.667
325 511 135.833
326 511 136.167
327 511 136.167
328 511 136.167
329 511 136.333
330 511 136.5
331 511 136.5
332 511 136.5
333 511 136.5
334 511 136.833
335 511 137
336 511 137.167
337 511 137.333
338 511 137.333
339 511 137.333
340 511 137.333
341 511 136.5
342 511 135.833
343 511 126.833
344 511 1.66667
375 511 33.8333
376 511 110.667
377 511 118.833
378 511 116.5
379 511 115.667
380 511 114.833
381 511 112.5
382 511 112
383 511 111.333
384 511 110
385 511 109
386 511 108.667
387 511 108
388 511 107.333
389 511 107.167
390 511 106.667
391 511 106
392 511 105.5
393 511 105.167
394 511 104.167
395 511 103.833
396 511 103.5
397 511 102.333
398 511 101.5
399 511 100.833
400 511 99.8333
401 511 99.3333
402 511 98.8333
403 511 96.3333
404 511 57.6667
405 511 5
427 511 6.16667
428 511 28.1667
429 511 40.5
430 511 39.6667
431 511 38.8333
432 511 38.8333
433 511 38.8333
434 511 38.8333
435 511 38.8333
436 511 39.5
437 511 40
438 511 2.5
450 511 0.333333
451 511 24.5
452 511 23.1667
453 511 12.5
454 511 0.666667
457 511 6.66667
458 511 10.1667
459 511 12
460 511 1.16667
461 511 1
462 511 1
508 511 8.16667
509 511 27.1667
510 511 34.5
511 511 38.6667
512 511 43.8333
513 511 52.3333
514 511 58.6667
515 511 63.5
516 511 69
517 511 75.3333
518 511 82.6667
519 511 86.5
520 511 86.3333
521 511 85.8333
522 511 85.6667
523 511 85.1667
524 511 84.8333
525 511 84.5
526 511 84.1667
527 511 83.6667
528 511 83.3333
529 511 82.5
530 511 82.3333
531 511 82
532 511 80.6667
533 511 79.5
534 511 79
535 511 78.3333
536 511 77.1667
537 511 76
538 511 72
245 512 35
246 512 92.8333
247 512 110.167
248 512 114.167
249 512 116.167
250 512 116.333
251 512 117.167
252 512 117.333
253 512 118
254 512 118
255 512 118.667
256 512 120
257 512 120.333
258 512 120.833
259 512 121.333
260 512 122
261 512 122.167
262 512 122.167
263 512 122.833
264 512 123.167
265 512 123.5
266 512 123.667
267 512 123.833
268 512 124
269 512 124.167
270 512 124.833
271 512 125.167
272 512 125.167
273 512 125.5
274 512 125.5
275 512 125.667
276 512 125.667
277 512 125.833
278 512 126
279 512 126.167
280 512 126.333
281 512 126.333
282 512 126.833
283 512 126.833
284 512 126.833
285 512 127.167
286 512 127.5
287 512 127.667
288 512 127.833
289 512 127.833
290 512 128.167
291 512 128.333
292 512 128.333
293 512 128.5
294 512 128.5
295 512 128.5
296 512 128.833
297 512 129
298 512 129.167
299 512 129.333
300 512 129.5
301 512 129.833
302 512 130
303 512 130.167
304 512 130.5
305 512 130.5
306 512 130.833
307 512 131.667
308 512 131.833
309 512 132
310 512 132.167
311 512 132.333
312 512 132.833
313 512 133
314 512 133.5
315 512 133.5
316 512 133.833
317 512 134
318 512 134
319 512 134.5
320 512 134.667
321 512 135
322 512 135.167
323 512 135.167
324 512 135.5
325 512 135.5
326 512 135.667
327 512 136
328 512 136.167
329 512 136.167
330 512 136.167
331 512 136.167
332 512 136.167
333 512 136.5
334 512 136.667
335 512 136.667
336 512 136.833
337 512 136.833
338 512 136.833
339 512 136.833
340 512 137
341 512 136.833
342 512 136.833
343 512 127.5
344 512 1.66667
375 512 0.333333
376 512 22.5
377 512 102.333
378 512 118.667
379 512 116.5
380 512 115.833
381 512 114
382 512 112.833
383 512 112
384 512 111.5
385 512 110.167
386 512 109
387 512 108.667
388 512 107.667
389 512 107.5
390 512 107
391 512 106.333
392 512 106
393 512 105.667
394 512 104.833
395 512 104.167
396 512 103.667
397 512 103.333
398 512 101.833
399 512 101
400 512 99.8333
401 512 99.6667
402 512 98.8333
403 512 70.1667
404 512 17.5
405 512 0.166667
427 512 1.66667
428 512 4.83333
429 512 35.3333
430 512 39.1667
431 512 38.6667
432 512 38.6667
433 512 38.6667
434 512 38.6667
435 512 38.8333
436 512 39.5
437 512 39.3333
449 512 0.333333
450 512 25.6667
451 512 25.5
452 512 23.1667
453 512 12.5
454 512 1
455 512 1
456 512 1
457 512 7.66667
458 512 11.3333
459 512 8.83333
460 512 0.5
461 512 0.5
462 512 0.5
508 512 8.16667
509 512 27.1667
510 512 34.5
511 512 38.6667
512 512 43.8333
513 512 52.3333
514 512 58.6667
515 512 63.5
516 512 69
517 512 75.3333
518 512 82.6667
519 512 86.5
520 512 86.3333
521 512 85.8333
522 512 85.5
523 512 85
524 512 84.8333
525 512 84.3333
526 512 84.1667
527 512 83.3333
528 512 82.8333
529 512 82.3333
530 512 82
531 512 80.5
532 512 79.8333
533 512 78.6667
534 512 78.3333
535 512 77.1667
536 512 76.6667
537 512 73.1667
244 513 7.33333
245 513 57.5
246 513 101
247 513 112.667
248 513 115.5
249 513 116.333
250 513 116.833
251 513 117.167
252 513 117.333
253 513 118
254 513 118
255 513 118.667
256 513 120.167
257 513 120.667
258 513 121.333
259 513 121.667
260 513 122
261 513 122.167
262 513 122.167
263 513 122.833
264 513 123.167
265 513 123.5
266 513 123.667
267 513 123.833
268 513 124
269 513 124
270 513 124.667
271 513 125.167
272 513 125.167
273 513 125.333
274 513 125.333
275 513 125.5
276 513 125.667
277 513 125.667
278 513 125.667
279 513 126.167
280 513 126.333
281 513 126.333
282 513 126.667
283 513 126.667
284 513 126.667
285 513 127
286 513 127.333
287 513 127.5
288 513 127.667
289 513 127.667
290 513 127.667
291 513 127.833
292 513 128
293 513 128.167
294 513 128.333
295 513 128.333
296 513 128.333
297 513 128.5
298 513 128.667
299 513 128.833
300 513 128.833
301 513 129.167
302 513 129.333
303 513 129.667
304 513 129.833
305 513 130.167
306 513 130.667
307 513 131
308 513 131.5
309 513 131.833
310 513 132
311 513 132
312 513 132.5
313 513 132.667
314 513 133
315 513 133.167
316 513 133.333
317 513 133.833
318 513 133.833
319 513 134.333
320 513 134.5
321 513 134.667
322 513 134.833
323 513 135
324 513 135.167
325 513 135.333
326 513 135.333
327 513 135.5
328 513 135.5
329 513 135.5
330 513 135.5
331 513 135.833
332 513 136
333 513 136.5
334 513 136.5
335 513 136.5
336 513 136.5
337 513 136.5
338 513 136.5
339 513 136.5
340 513 136.667
341 513 136.833
342 513 136.833
343 513 128.5
344 513 1.66667
376 513 0.333333
377 513 19
378 513 104.667
379 513 118.667
380 513 116.833
381 513 114.833
382 513 114
383 513 112.667
384 513 111.833
385 513 111.167
386 513 110.333
387 513 109.167
388 513 108.667
389 513 107.833
390 513 107.167
391 513 106.833
392 513 106.333
393 513 105.833
394 513 105.167
395 513 104.667
396 513 104
397 513 103.5
398 513 102.5
399 513 101.333
400 513 100.167
401 513 99.3333
402 513 95.6667
403 513 24.8333
404 513 0.166667
427 513 0.666667
428 513 0.833333
429 513 22.6667
430 513 35.5
431 513 35.3333
432 513 35.3333
433 513 35.5
434 513 38.5
435 513 38.8333
436 513 35.6667
437 513 3.83333
449 513 22.6667
450 513 28.6667
451 513 25.5
452 513 23.1667
453 513 12.6667
454 513 12.5
455 513 12.5
456 513 12.5
457 513 19.1667
458 513 23.5
459 513 1.5
508 513 8.16667
509 513 27.1667
510 513 34.5
511 513 38.6667
512 513 43.8333
513 513 52.3333
514 513 58.6667
515 513 63.5
516 513 69
517 513 75.3333
518 513 82.6667
519 513 86.3333
520 513 86
521 513 85.6667
522 513 85.5
523 513 84.8333
524 513 84.8333
525 513 84
526 513 83.5
527 513 83
528 513 82.5
529 513 82
530 513 81.6667
531 513 80.3333
532 513 79.5
533 513 78.6667
534 513 78
535 513 76.3333
536 513 73
244 514 26.6667
245 514 75.5
246 514 104.333
247 514 113.167
248 514 115.833
249 514 116.5
250 514 116.5
251 514 117.5
252 514 117.833
253 514 118.333
254 514 118.333
255 514 118.667
256 514 120.167
257 514 120.667
258 514 121.333
259 514 121.833
260 514 122.167
261 514 122.333
262 514 122.333
263 514 122.833
264 514 123.167
265 514 123.5
266 514 123.667
267 514 123.833
268 514 124
269 514 124
270 514 124.667
271 514 125.167
272 514 125.167
273 514 125.333
274 514 125.333
275 514 125.5
276 514 125.667
277 514 125.667
278 514 125.667
279 514 126.167
280 514 126.333
281 514 126.333
282 514 126.5
283 514 126.667
284 514 126.667
285 514 126.833
286 514 127
287 514 127
288 514 127.333
289 514 127.333
290 514 127.5
291 514 127.833
292 514 128
293 514 128.167
294 514 128.333
295 514 128.333
296 514 128.333
297 514 128.5
298 514 128.5
299 514 128.667
300 514 128.667
301 514 129.167
302 514 129.333
303 514 129.5
304 514 129.667
305 514 129.667
306 514 130.333
307 514 130.833
308 514 131.167
309 514 131.5
310 514 131.833
311 514 131.833
312 514 132.333
313 514 132.5
314 514 132.667
315 514 133
316 514 133
317 514 133
318 514 133.333
319 514 133.667
320 514 134.167
321 514 134.5
322 514 134.667
323 514 134.667
324 514 134.833
325 514 135
326 514 135
327 514 135.167
328 514 135.333
329 514 135.333
330 514 135.333
331 514 135.667
332 514 136
333 514 136.333
334 514 136.333
335 514 136.5
336 514 136.5
337 514 136.5
338 514 136.5
339 514 136.5
340 514 136.5
341 514 136.667
342 514 136.667
343 514 130.833
344 514 1.66667
377 514 0.166667
378 514 76.5
379 514 120.5
380 514 119.333
381 514 116.833
382 514 115
383 514 114.5
384 514 113
385 514 112
386 514 110.5
387 514 110.167
388 514 109.333
389 514 108.5
390 514 107.833
391 514 107.5
392 514 106.833
393 514 106.5
394 514 105.667
395 514 105
396 514 104.333
397 514 103.667
398 514 103.333
399 514 101.833
400 514 100.5
401 514 87.1667
402 514 16.6667
429 514 14.6667
430 514 28
431 514 28.6667
432 514 28.8333
433 514 35.5
434 514 38.5
435 514 38.8333
436 514 7
448 514 9.16667
449 514 30.8333
450 514 28.8333
451 514 25.5
452 514 23.1667
453 514 21.1667
454 514 21.1667
455 514 21.1667
456 514 21.1667
457 514 27.8333
458 514 17.1667
459 514 0.5
507 514 1.83333
508 514 23.3333
509 514 31.8333
510 514 37.3333
511 514 38.6667
512 514 44.1667
513 514 52.5
514 514 58.6667
515 514 63.5
516 514 69
517 514 77.5
518 514 83.6667
519 514 86.3333
520 514 85.8333
521 514 85.6667
522 514 85.3333
523 514 84.6667
524 514 84.1667
525 514 83.8333
526 514 83.3333
527 514 82.6667
528 514 82
529 514 81.6667
530 514 79.6667
531 514 79
532 514 78.5
533 514 78
534 514 76
535 514 72.6667
244 515 43.6667
245 515 90.1667
246 515 108.833
247 515 113.833
248 515 115.833
249 515 116.833
250 515 116.5
251 515 117.5
252 515 117.833
253 515 118.333
254 515 118.333
255 515 118.667
256 515 120.167
257 515 120.5
258 515 121.167
259 515 121.833
260 515 122.167
261 515 122.333
262 515 122.333
263 515 122.833
264 515 123.167
265 515 123.5
266 515 123.667
267 515 123.833
268 515 124
269 515 124
270 515 124.5
271 515 124.833
272 515 124.833
273 515 125.333
274 515 125.333
275 515 125.333
276 515 125.667
277 515 125.667
278 515 125.667
279 515 125.833
280 515 126.167
281 515 126.167
282 515 126.333
283 515 126.333
284 515 126.5
285 515 126.5
286 515 126.5
287 515 126.667
288 515 126.833
289 515 126.833
290 515 127
291 515 127
292 515 127.5
293 515 127.5
294 515 127.5
295 515 127.667
296 515 127.833
297 515 128.167
298 515 128.167
299 515 128.167
300 515 128.167
301 515 129
302 515 129
303 515 129
304 515 129.5
305 515 129.5
306 515 129.833
307 515 130.5
308 515 130.5
309 515 131.167
310 515 131.5
311 515 131.667
312 515 131.833
313 515 132.333
314 515 132.5
315 515 132.667
316 515 133
317 515 133
318 515 133
319 515 133.167
320 515 133.5
321 515 134
322 515 134.167
323 515 134.167
324 515 134.167
325 515 134.167
326 515 134.667
327 515 134.833
328 515 135.167
329 515 135.333
330 515 135.333
331 515 135.5
332 515 136
333 515 136
334 515 136
335 515 136
336 515 136.167
337 515 136.167
338 515 136.167
339 515 136.167
340 515 136.333
341 515 136.333
342 515 136.333
343 515 133.833
344 515 2.83333
377 515 0.166667
378 515 76.8333
379 515 124
380 515 120.5
381 515 119.167
382 515 116.5
383 515 115.667
384 515 114.333
385 515 112.333
386 515 111.667
387 515 111.333
388 515 110.333
389 515 108.833
390 515 108.5
391 515 107.833
392 515 107.333
393 515 106.667
394 515 105.833
395 515 105.167
396 515 105
397 515 104.333
398 515 103.333
399 515 102.333
400 515 100.5
401 515 11.8333
429 515 0.5
430 515 1
431 515 1.83333
432 515 9.16667
433 515 35.5
434 515 38.5
435 515 37.1667
448 515 28.3333
449 515 30.8333
450 515 28.8333
451 515 25.5
452 515 24.1667
453 515 24.1667
454 515 24.1667
455 515 24.1667
456 515 24.1667
457 515 19
458 515 0.5
506 515 1.83333
507 515 31
508 515 37.1667
509 515 38
510 515 38.3333
511 515 40.8333
512 515 45.3333
513 515 53.1667
514 515 59
515 515 64
516 515 69.5
517 515 79.6667
518 515 84.6667
519 515 86.3333
520 515 85.8333
521 515 85.1667
522 515 85
523 515 84.3333
524 515 84
525 515 83.6667
526 515 82.6667
527 515 82.3333
528 515 81.8333
529 515 80
530 515 79
531 515 78
532 515 77.5
533 515 75.6667
534 515 72
243 516 9.16667
244 516 64.5
245 516 101.333
246 516 111.167
247 516 114.333
248 516 115.833
249 516 116.833
250 516 116.5
251 516 117.5
252 516 117.833
253 516 118.333
254 516 118.333
255 516 118.667
256 516 120
257 516 120.5
258 516 121.667
259 516 122
260 516 122.167
261 516 122.333
262 516 122.333
263 516 122.5
264 516 123
265 516 123.333
266 516 123.333
267 516 123.667
268 516 124
269 516 124
270 516 124.333
271 516 124.667
272 516 124.667
273 516 124.833
274 516 125.167
275 516 125.333
276 516 125.5
277 516 125.667
278 516 125.667
279 516 125.667
280 516 125.667
281 516 125.667
282 516 126
283 516 126
284 516 126.333
285 516 126.333
286 516 126.5
287 516 126.667
288 516 126.667
289 516 126.833
290 516 127
291 516 127
292 516 127.5
293 516 127.5
294 516 127.5
295 516 127.667
296 516 127.667
297 516 127.833
298 516 128.167
299 516 128.167
300 516 128.167
301 516 128.667
302 516 128.833
303 516 129
304 516 129.333
305 516 129.333
306 516 129.667
307 516 130
308 516 130.333
309 516 130.5
310 516 131.167
311 516 131.5
312 516 131.833
313 516 132
314 516 132.333
315 516 132.333
316 516 132.5
317 516 132.667
318 516 132.667
319 516 133
320 516 133.333
321 516 133.667
322 516 133.667
323 516 134
324 516 134.167
325 516 134.167
326 516 134.5
327 516 134.667
328 516 134.667
329 516 135
330 516 135.167
331 516 135.333
332 516 135.5
333 516 135.667
334 516 135.667
335 516 135.667
336 516 135.833
337 516 136
338 516 136
339 516 136
340 516 136
341 516 136.167
342 516 136.167
343 516 136.167
344 516 120.833
345 516 7.33333
377 516 0.166667
378 516 77.3333
379 516 125.833
380 516 121.667
381 516 119.833
382 516 119
383 516 116.5
384 516 115.333
385 516 114.667
386 516 112.333
387 516 111.667
388 516 110.833
389 516 110.5
390 516 109
391 516 108.5
392 516 107.667
393 516 107.167
394 516 106.5
395 516 105.667
396 516 105.167
397 516 104.667
398 516 103.833
399 516 102
400 516 72.3333
401 516 0.666667
431 516 0.166667
432 516 9.16667
433 516 35.5
434 516 37.6667
447 516 2.83333
448 516 32
449 516 30.8333
450 516 28.8333
451 516 25.5
452 516 25.5
453 516 25.5
454 516 25.5
455 516 25.5
456 516 24.1667
457 516 0.166667
479 516 1.5
506 516 10.8333
507 516 35.5
508 516 37.3333
509 516 38.3333
510 516 39
511 516 41.6667
512 516 48.3333
513 516 55.8333
514 516 60.8333
515 516 64.6667
516 516 70.8333
517 516 80.1667
518 516 85.1667
519 516 86
520 516 85.5
521 516 85.1667
522 516 84.8333
523 516 84.1667
524 516 83.8333
525 516 82.6667
526 516 82.3333
527 516 82
528 516 80.3333
529 516 78.6667
530 516 78
531 516 77
532 516 75
533 516 73.1667
243 517 28.1667
244 517 92.1667
245 517 108
246 517 112.5
247 517 115.333
248 517 116
249 517 116.833
250 517 116.833
251 517 117.833
252 517 118.167
253 517 118.667
254 517 118.667
255 517 119
256 517 120.333
257 517 120.833
258 517 121.5
259 517 121.833
260 517 121.833
261 517 122
262 517 122
263 517 122.333
264 517 122.833
265 517 122.833
266 517 122.833
267 517 123
268 517 123.5
269 517 124.167
270 517 124.333
271 517 124.667
272 517 124.667
273 517 124.667
274 517 125
275 517 125
276 517 125.167
277 517 125.333
278 517 125.667
279 517 125.667
280 517 125.667
281 517 125.667
282 517 125.833
283 517 125.833
284 517 126
285 517 126.167
286 517 126.167
287 517 126.333
288 517 126.667
289 517 126.667
290 517 126.833
291 517 126.833
292 517 127
293 517 127
294 517 127.333
295 517 127.5
296 517 127.5
297 517 127.667
298 517 127.667
299 517 128
300 517 128
301 517 128
302 517 128.667
303 517 129
304 517 129
305 517 129
306 517 129.333
307 517 129.667
308 517 129.833
309 517 130.333
310 517 130.333
311 517 130.667
312 517 131
313 517 131.333
314 517 131.833
315 517 132.167
316 517 132.333
317 517 132.5
318 517 132.667
319 517 133
320 517 133.167
321 517 133.333
322 517 133.5
323 517 133.667
324 517 133.833
325 517 133.833
326 517 134.167
327 517 134.333
328 517 134.5
329 517 134.667
330 517 135
331 517 135
332 517 135
333 517 135
334 517 135
335 517 135
336 517 135.333
337 517 135.5
338 517 135.833
339 517 135.833
340 517 135.833
341 517 136
342 517 136
343 517 136
344 517 135.5
345 517 125.167
346 517 13
377 517 0.166667
378 517 77.5
379 517 128
380 517 125
381 517 121.833
382 517 119.667
383 517 119.667
384 517 116.333
385 517 115.333
386 517 114.667
387 517 112.667
388 517 111.333
389 517 111
390 517 110.5
391 517 109
392 517 108.5
393 517 107.5
394 517 106.833
395 517 106.167
396 517 105.5
397 517 104.667
398 517 104.167
399 517 88.1667
400 517 4.33333
431 517 0.166667
432 517 9.16667
433 517 35.5
434 517 1.66667
447 517 30.8333
448 517 32.5
449 517 30.8333
450 517 29
451 517 29
452 517 29
453 517 29
454 517 29
455 517 29
456 517 13.5
469 517 0.166667
470 517 2
471 517 1
479 517 0.833333
506 517 24
507 517 37.1667
508 517 37.6667
509 517 38.3333
510 517 41.1667
511 517 44
512 517 53.5
513 517 60
514 517 61.5
515 517 66.8333
516 517 73.5
517 517 82.1667
518 517 85.3333
519 517 85.8333
520 517 85.5
521 517 84.8333
522 517 84
523 517 83.5
524 517 83
525 517 82.3333
526 517 80.6667
527 517 80
528 517 79
529 517 78.3333
530 517 76.5
531 517 74.6667
532 517 72.5
533 517 67.6667
243 518 43.3333
244 518 99
245 518 109.333
246 518 113.167
247 518 115
248 518 115.833
249 518 116.833
250 518 117
251 518 117.5
252 518 118.167
253 518 118.667
254 518 118.667
255 518 119.333
256 518 120.5
257 518 120.833
258 518 121.333
259 518 121.667
260 518 121.667
261 518 121.667
262 518 122
263 518 122.167
264 518 122.5
265 518 122.5
266 518 122.667
267 518 123
268 518 123.333
269 518 123.833
270 518 124
271 518 124.167
272 518 124.5
273 518 124.667
274 518 124.667
275 518 124.833
276 518 124.833
277 518 124.833
278 518 125.5
279 518 125.5
280 518 125.5
281 518 125.667
282 518 125.667
283 518 125.667
284 518 125.667
285 518 125.667
286 518 125.667
287 518 126
288 518 126.167
289 518 126.333
290 518 126.667
291 518 126.667
292 518 126.833
293 518 126.833
294 518 126.833
295 518 127
296 518 127.333
297 518 127.333
298 518 127.5
299 518 127.667
300 518 128
301 518 128
302 518 128.333
303 518 128.5
304 518 128.667
305 518 128.833
306 518 129.167
307 518 129.5
308 518 129.5
309 518 129.667
310 518 130
311 518 130.333
312 518 130.667
313 518 130.833
314 518 131.333
315 518 131.5
316 518 131.833
317 518 132.167
318 518 132.5
319 518 133
320 518 133
321 518 133.167
322 518 133.167
323 518 133.5
324 518 133.667
325 518 133.667
326 518 133.667
327 518 133.667
328 518 134.333
329 518 134.333
330 518 134.667
331 518 134.667
332 518 134.667
333 518 134.667
334 518 134.667
335 518 135
336 518 135.167
337 518 135.333
338 518 135.5
339 518 135.5
340 518 135.5
341 518 135.5
342 518 135.667
343 518 135.667
344 518 135.667
345 518 133.667
346 518 124
347 518 15.5
377 518 0.166667
378 518 77.5
379 518 128.5
380 518 125.5
381 518 123.833
382 518 122.333
383 518 120.333
384 518 117.667
385 518 115.667
386 518 115.667
387 518 114.5
388 518 112
389 518 111.5
390 518 110.667
391 518 110.5
392 518 109
393 518 108.167
394 518 107.167
395 518 106.333
396 518 105.667
397 518 104.833
398 518 104.333
399 518 18.3333
431 518 0.166667
432 518 9.16667
433 518 32.5
446 518 8.83333
447 518 32.5
448 518 32.5
449 518 30.8333
450 518 30.1667
451 518 30.1667
452 518 30.1667
453 518 30.1667
454 518 30.1667
455 518 23.6667
469 518 0.166667
470 518 4.33333
471 518 3.16667
472 518 0.666667
473 518 0.666667
474 518 0.666667
475 518 0.666667
476 518 0.666667
477 518 0.666667
478 518 0.333333
505 518 5
506 518 28.1667
507 518 37.1667
508 518 37.6667
509 518 39.5
510 518 42.1667
511 518 47.8333
512 518 58.1667
513 518 62
514 518 65.6667
515 518 72
516 518 77.5
517 518 84.8333
518 518 86
519 518 85.5
520 518 85
521 518 84.3333
522 518 83.8333
523 518 83.3333
524 518 82.1667
525 518 81.6667
526 518 80
527 518 78.6667
528 518 77.8333
529 518 76.3333
530 518 75.6667
531 518 72.6667
532 518 68.1667
242 519 4
243 519 70.5
244 519 104.833
245 519 110.833
246 519 114
247 519 115
248 519 115.333
249 519 117
250 519 117
251 519 117.667
252 519 117.833
253 519 118.667
254 519 119.5
255 519 119.667
256 519 120
257 519 120.5
258 519 121.167
259 519 121.667
260 519 121.667
261 519 121.667
262 519 122
263 519 122.167
264 519 122.333
265 519 122.333
266 519 122.5
267 519 122.667
268 519 123.167
269 519 123.667
270 519 123.833
271 519 123.833
272 519 124
273 519 124
274 519 124.333
275 519 124.5
276 519 124.667
277 519 124.833
278 519 125.167
279 519 125.333
280 519 125.333
281 519 125.333
282 519 125.333
283 519 125.333
284 519 125.333
285 519 125.333
286 519 125.5
287 519 125.667
288 519 126
289 519 126
290 519 126.167
291 519 126.167
292 519 126.333
293 519 126.667
294 519 126.667
295 519 126.667
296 519 126.667
297 519 127
298 519 127.333
299 519 127.333
300 519 127.5
301 519 127.667
302 519 127.833
303 519 128
304 519 128.333
305 519 128.5
306 519 128.667
307 519 129.167
308 519 129.167
309 519 129.667
310 519 129.833
311 519 130.167
312 519 130.5
313 519 130.5
314 519 130.667
315 519 131.333
316 519 131.5
317 519 131.667
318 519 132
319 519 132.167
320 519 132.333
321 519 132.667
322 519 133
323 519 133.167
324 519 133.333
325 519 133.333
326 519 133.333
327 519 133.5
328 519 134
329 519 134
330 519 134
331 519 134
332 519 134.333
333 519 134.333
334 519 134.333
335 519 134.833
336 519 135
337 519 135.167
338 519 135.333
339 519 135.333
340 519 135.5
341 519 135.5
342 519 135.5
343 519 135.667
344 519 135.667
345 519 135.167
346 519 134.167
347 519 126.833
348 519 45.8333
349 519 0.5
377 519 0.166667
378 519 77.6667
379 519 129.167
380 519 127
381 519 125.833
382 519 125.167
383 519 125
384 519 121.833
385 519 119.333
386 519 116.333
387 519 115.667
388 519 113
389 519 112.333
390 519 111.833
391 519 110.667
392 519 110
393 519 108.5
394 519 107.833
395 519 106.5
396 519 105.667
397 519 105
398 519 56.8333
399 519 0.166667
431 519 0.166667
432 519 8
446 519 23.5
447 519 33
448 519 32.5
449 519 31.5
450 519 31.5
451 519 31.5
452 519 31.5
453 519 31.5
454 519 26.1667
455 519 1.33333
467 519 2.66667
468 519 1.16667
470 519 3.16667
471 519 3.33333
472 519 3.33333
473 519 3.33333
474 519 4
475 519 4
476 519 4
477 519 3.83333
478 519 0.333333
505 519 8.16667
506 519 32
507 519 37.1667
508 519 37.8333
509 519 40.8333
510 519 45.6667
511 519 55.1667
512 519 61.6667
513 519 65.6667
514 519 68.3333
515 519 76.6667
516 519 81
517 519 85.3333
518 519 85.6667
519 519 85.3333
520 519 84.3333
521 519 83.8333
522 519 83.3333
523 519 82.1667
524 519 82.1667
525 519 80.1667
526 519 79.1667
527 519 77
528 519 76
529 519 75.6667
530 519 72.5
531 519 68.6667
242 520 17.6667
243 520 85.6667
244 520 108
245 520 112
246 520 113.667
247 520 114.833
248 520 115.333
249 520 117
250 520 117
251 520 117.667
252 520 118
253 520 118.5
254 520 119.5
