ply
format ascii 1.0
element vertex 1481
property float x
property float y
property float z
property float u
property float v
end_header
-40.1057 132.346 -425.923 346 23
-39.5399 133.112 -428.387 349 23
-38.2119 132.143 -424.633 350 23
-37.4195 132.142 -424.629 352 23
-36.8391 132.908 -427.089 355 23
-36.0438 132.913 -427.105 357 23
-35.644 132.91 -427.097 358 23
-35.2467 132.911 -427.1 359 23
-33.4586 132.376 -424.74 362 22
-32.5605 132.758 -425.966 365 22
-30.4686 132.921 -427.131 371 23
-30.0679 132.922 -427.134 372 23
-29.3874 132.541 -425.911 373 23
-28.8706 133.15 -427.226 375 22
-28.3535 133.532 -428.452 377 22
-25.2842 133.153 -427.236 384 22
-24.8866 133.154 -427.238 385 22
-23.6907 133.156 -427.244 388 22
-21.5736 132.394 -424.798 392 22
-19.9828 132.614 -424.866 396 21
-16.9156 133.567 -427.284 405 21
-16.518 133.568 -427.286 406 21
-15.4762 133.186 -426.064 408 21
-14.5265 133.572 -427.297 411 21
-13.4905 133.19 -426.076 413 21
-12.9327 133.575 -427.307 415 21
-12.1341 133.576 -427.311 417 21
-11.3373 133.581 -427.326 419 21
-10.9378 133.578 -427.318 420 21
-10.1424 133.58 -427.323 422 21
-9.74329 133.584 -427.335 423 21
-8.72223 133.199 -426.104 425 21
-8.10103 132.818 -424.887 426 21
-8.14733 133.583 -427.334 427 21
-6.73283 133.202 -426.115 430 21
-6.15542 133.587 -427.345 432 21
-5.54127 133.201 -426.111 433 21
-2.18211 134.773 -429.856 443 20
-0.573803 133.996 -427.378 446 20
0.223442 134.001 -427.393 448 20
0.622875 133.999 -427.386 449 20
1.61258 133.615 -426.163 451 20
2.40919 133.617 -426.167 453 20
5.00883 134.007 -427.411 460 20
11.7961 134.229 -427.482 477 19
12.1973 134.23 -427.484 478 19
12.9932 134.231 -427.487 480 19
14.5884 134.233 -427.496 484 19
15.3876 134.235 -427.5 486 19
21.4357 120.43 -385.254 488 19
17.2316 134.625 -428.744 491 19
20.8418 133.664 -425.053 499 19
115.746 137.945 -432.875 736 13
-99.16 131.529 -430.41 202 29
-98.2486 130.903 -429.021 203 30
-97.4521 131.309 -429.037 205 29
-96.4917 130.153 -426.563 205 30
-96.2742 131.153 -429.183 208 29
-95.4725 131.152 -429.178 210 29
-94.7289 131.696 -430.303 213 29
-93.5262 131.699 -430.312 216 29
-92.3231 131.702 -430.321 219 29
-91.4582 131.322 -429.081 220 29
-90.6575 131.324 -429.087 222 29
-89.86 131.326 -429.093 224 29
-89.0009 130.946 -427.85 225 29
-88.6605 131.329 -429.103 227 29
-87.8595 131.331 -429.108 229 29
-87.4608 131.332 -429.112 230 29
-86.6594 131.33 -429.107 232 29
-85.4632 131.336 -429.126 235 29
-84.6782 131.578 -429.259 237 28
-84.2793 131.579 -429.262 238 28
-83.4625 131.741 -429.14 240 28
-83.0635 131.742 -429.142 241 28
-82.2388 131.199 -428.024 242 28
-81.8542 131.437 -428.145 243 27
-79.8483 131.207 -428.051 248 28
-79.447 131.205 -428.044 249 28
-79.049 131.206 -428.046 250 28
-77.8392 131.371 -427.933 253 28
-77.4659 131.755 -429.185 255 28
-76.6022 130.619 -425.484 254 28
-75.4308 130.998 -426.718 258 28
-73.827 130.625 -425.505 261 28
-73.0442 131.003 -426.736 264 28
-71.8692 131.62 -428.093 268 27
-71.0732 131.625 -428.109 270 27
-70.6717 131.623 -428.101 271 27
-69.8756 131.627 -428.116 273 27
-69.4776 131.628 -428.119 274 27
-69.0764 131.626 -428.112 275 27
-68.6783 131.627 -428.115 276 27
-67.1066 130.729 -424.549 277 26
-67.4807 132.029 -428.121 279 26
-66.2912 131.253 -426.897 281 27
-65.0889 131.637 -428.148 285 27
11.0573 -7.62654 35.9763 287 26
-64.3031 131.257 -426.91 286 27
-63.8843 131.806 -428.047 288 27
-62.687 131.808 -428.056 291 27
-62.2953 132.043 -428.165 292 26
-61.8942 132.04 -428.158 293 26
-60.6996 132.046 -428.177 296 26
-59.5295 131.665 -426.941 298 26
-59.1334 131.497 -427.042 299 26
-58.3351 131.667 -426.949 301 26
-57.5378 131.669 -426.955 303 26
-56.3464 131.675 -426.973 306 26
-55.9462 131.672 -426.964 307 26
-55.5102 132.054 -428.201 309 26
-55.1115 132.057 -428.213 310 26
65.665 -51.9985 220.521 312 26
-53.6074 131.526 -425.845 312 25
-53.9163 132.289 -428.316 313 25
-52.763 131.679 -426.986 315 26
-52.0178 131.302 -425.764 316 26
-50.7741 131.683 -426.999 320 26
-50.3737 131.684 -427.001 321 26
-49.5807 131.913 -427.096 323 25
-49.1255 132.298 -428.343 325 25
-48.3856 131.915 -427.103 326 25
-46.8566 131.312 -425.798 329 26
-45.9952 131.919 -427.116 332 25
-45.2691 131.541 -425.893 333 25
-44.0054 131.923 -427.128 337 25
-42.81 131.925 -427.134 340 25
-42.4128 131.925 -427.137 341 25
-41.9378 132.485 -428.301 343 25
-40.2731 130.968 -423.398 344 25
-40.4235 132.106 -427.077 346 25
-39.3148 131.726 -425.847 348 25
-38.2116 131.35 -424.634 350 25
-37.2362 132.109 -427.088 354 25
-36.8388 132.11 -427.09 355 25
-36.1391 131.732 -425.868 356 25
-35.6437 132.112 -427.098 358 25
-34.849 132.114 -427.104 360 25
-33.8566 131.36 -424.664 361 25
-33.6539 132.515 -427.111 363 24
-32.5602 131.962 -425.967 365 24
-31.2594 132.344 -427.201 369 24
-30.4645 132.346 -427.206 371 24
-30.0637 132.346 -427.208 372 24
-29.5479 132.951 -428.512 374 23
-28.8747 132.529 -427.153 375 24
-28.455 133.004 -427.395 376 21
-27.2817 132.532 -427.163 379 24
-26.882 132.529 -427.156 380 24
-26.4846 132.53 -427.158 381 24
-25.812 132.147 -425.925 382 24
-25.2839 132.355 -427.237 384 24
-24.8808 132.575 -427.3 385 23
-23.8207 131.977 -426.016 387 24
-22.8827 132.049 -423.691 388 21
-22.0971 132.76 -427.254 392 23
-21.6933 132.58 -427.317 393 23
-21.2924 132.581 -427.318 394 23
-19.989 132 -424.808 396 23
-20.1048 132.767 -427.277 397 23
-19.054 132.384 -426.044 399 23
-18.365 133.153 -428.521 402 23
-18.0905 133.414 -427.429 402 20
-16.9153 132.769 -427.284 405 23
-16.5177 132.77 -427.286 406 23
-15.4759 132.39 -426.064 408 23
-14.9239 132.772 -427.294 410 23
-14.5262 132.773 -427.297 411 23
-13.7277 132.775 -427.303 413 23
-12.9323 132.776 -427.306 415 23
-12.1338 132.778 -427.312 417 23
-11.3371 132.783 -427.327 419 23
-10.9374 132.78 -427.318 420 23
-10.1421 132.781 -427.323 422 23
-9.74297 132.785 -427.335 423 23
-9.14627 133.809 -428.694 425 20
115.23 -106.639 462.352 425 23
-8.1007 132.024 -424.886 426 23
-8.14701 132.785 -427.334 427 23
-7.35158 132.786 -427.34 429 23
-6.55286 132.788 -427.344 431 23
-6.15514 132.789 -427.346 432 23
-5.35814 132.793 -427.361 434 23
-4.53511 132.03 -424.906 435 23
-4.56954 132.974 -427.302 436 23
-3.36433 132.793 -427.362 439 23
-2.18163 133.568 -429.856 443 23
-0.971287 133.197 -427.375 445 22
-0.969078 133.786 -429.907 446 22
0.223755 133.203 -427.393 448 22
0.623188 133.2 -427.385 449 22
1.41882 133.201 -427.389 451 22
2.40951 132.82 -426.167 453 22
3.62403 133.59 -428.637 457 22
5.00914 133.207 -427.409 460 22
5.80488 133.209 -427.415 462 22
6.20452 133.213 -427.427 463 22
7.80079 133.213 -427.427 467 22
8.59658 133.214 -427.431 469 22
9.39562 133.215 -427.435 471 22
10.5912 133.221 -427.452 474 22
11.0005 133.429 -427.478 475 21
11.7964 133.43 -427.482 477 21
12.1976 133.431 -427.484 478 21
12.9935 133.432 -427.489 480 21
14.3481 133.051 -426.266 483 21
14.4211 134.01 -428.699 484 21
15.3878 133.436 -427.499 486 21
15.7858 133.436 -427.501 487 21
16.5851 133.437 -427.505 489 21
17.3811 133.439 -427.509 491 21
18.0322 133.828 -428.758 493 21
18.966 133.632 -427.49 495 21
19.5098 133.249 -426.265 496 21
19.6218 134.022 -428.739 497 21
20.9626 133.636 -427.501 500 21
21.3606 133.636 -427.504 501 21
23.7199 128.092 -409.767 502 21
29.0773 116.432 -370.802 505 19
30.9796 116.195 -368.952 510 19
32.4483 115.907 -368.037 514 19
34.3454 116.663 -369.89 520 18
37.1068 116.668 -369.904 528 18
37.4534 116.67 -369.913 529 18
38.8343 116.673 -369.92 533 18
41.5965 116.674 -369.926 541 18
43.0422 116.387 -369.013 545 18
44.703 116.679 -369.942 550 18
48.2374 108.892 -345.763 556 18
49.4381 115.248 -365.403 563 18
49.5867 116.397 -369.046 564 18
53.8473 118.344 -374.663 577 17
55.3765 117.337 -370.927 581 17
77.2841 135.312 -429.014 641 17
78.9787 136.291 -432.76 645 17
79.3513 135.892 -431.492 646 17
79.7506 136.105 -431.529 647 17
80.1491 136.316 -431.561 648 17
80.592 136.506 -432.802 649 17
81.3979 136.504 -432.795 651 17
81.3641 136.297 -431.5 651 16
81.766 136.298 -431.501 652 16
82.6126 136.696 -432.762 654 16
83.0157 136.697 -432.764 655 16
83.8237 136.912 -432.806 657 16
85.4335 137.337 -432.874 661 16
86.2469 136.7 -432.774 663 16
86.6019 136.303 -431.516 664 16
87.866 136.921 -432.834 667 16
88.2125 136.519 -431.565 668 16
88.6703 137.132 -432.863 669 16
89.0751 136.703 -432.784 670 16
89.8847 136.704 -432.786 672 16
90.2879 136.704 -432.788 673 16
90.6913 136.516 -432.834 674 17
91.837 136.308 -431.534 677 16
91.5011 136.517 -432.838 676 17
92.7132 136.707 -432.796 679 16
92.3115 136.926 -432.852 678 16
93.4482 136.31 -431.54 681 16
93.8534 136.31 -431.541 682 16
94.7335 136.521 -432.85 684 17
96.0244 137.113 -434.084 687 16
97.1578 136.712 -432.811 690 16
97.5608 136.712 -432.812 691 16
97.964 136.712 -432.813 692 16
98.4604 137.551 -434.187 693 16
99.2606 137.298 -434.025 695 15
99.5799 136.714 -432.819 696 16
100.886 137.115 -434.089 699 16
101.294 137.119 -434.101 700 16
101.602 136.716 -432.825 701 16
102.107 137.982 -434.27 702 16
102.507 137.117 -434.095 703 16
103.319 137.527 -434.108 705 15
103.723 137.524 -434.1 706 15
104.536 137.528 -434.112 708 15
104.941 137.529 -434.116 709 15
105.344 137.526 -434.106 710 15
106.157 137.53 -434.119 712 15
106.56 137.527 -434.109 713 15
107.374 137.531 -434.123 715 15
108.174 137.305 -434.048 717 15
107.778 137.532 -434.124 716 15
108.582 137.309 -434.059 718 15
108.987 137.309 -434.06 719 15
109.923 137.937 -435.404 721 15
110.737 137.938 -435.406 723 15
111.019 137.531 -434.123 724 15
111.958 137.94 -435.412 726 15
112.236 137.536 -434.138 727 15
113.178 137.941 -435.414 729 15
113.583 137.941 -435.416 730 15
114.394 137.939 -435.409 732 15
114.804 137.943 -435.421 733 15
115.615 137.943 -435.423 735 15
115.735 137.316 -432.802 736 14
118.346 138.764 -438.013 741 15
118.461 137.946 -435.432 742 15
119.276 137.947 -435.436 744 15
120.655 138.58 -436.791 747 15
121.545 137.721 -434.082 750 14
122.3 138.81 -436.873 751 15
123.499 138.358 -436.731 754 15
124.48 138.767 -438.023 756 15
84.2267 136.508 -432.807 658 17
84.5845 136.111 -431.55 659 17
84.9898 136.112 -431.552 660 17
-96.5927 130.371 -427.932 206 30
-94.2561 130.916 -429.062 213 30
-93.4553 130.917 -429.068 215 30
-91.4583 130.922 -429.082 220 30
-89.86 130.926 -429.094 224 30
-86.6252 130.791 -427.997 231 29
-84.6783 131.177 -429.26 237 29
-84.2792 131.178 -429.263 238 29
-83.0382 130.801 -428.03 240 29
-80.644 130.803 -428.037 246 29
-79.8484 130.808 -428.052 248 29
-79.0203 130.43 -426.815 249 29
-76.6692 131.049 -428.185 256 28
-73.8519 130.842 -426.858 262 28
-73.0666 131.219 -428.087 265 28
-71.8691 131.221 -428.094 268 28
-71.073 131.225 -428.109 270 28
-70.6716 131.223 -428.101 271 28
-69.8755 131.228 -428.117 273 28
-69.4776 131.229 -428.12 274 28
-68.6782 131.227 -428.115 276 28
-67.0939 130.476 -425.666 278 28
-67.4807 131.23 -428.123 279 28
-62.3009 131.475 -428.269 292 27
-61.8995 131.472 -428.261 293 27
-59.9046 131.476 -428.271 298 27
-58.7616 130.891 -425.72 299 27
-57.5377 131.271 -426.955 303 27
-56.3461 131.276 -426.972 306 27
-55.9461 131.274 -426.965 307 27
-55.5101 131.654 -428.202 309 27
-55.1919 130.898 -425.744 308 27
-53.6048 130.901 -425.754 312 27
-53.9135 131.66 -428.222 313 27
-49.5806 131.514 -427.097 323 26
-48.7828 131.515 -427.101 325 26
-45.1311 131.905 -428.367 335 26
-44.0053 131.524 -427.128 337 26
-42.81 131.526 -427.135 340 26
-42.4127 131.527 -427.138 341 26
-40.189 130.774 -424.694 345 26
-40.422 131.533 -427.16 346 26
-39.3147 131.328 -425.848 348 26
-37.3281 131.329 -425.85 353 26
-36.1389 131.334 -425.868 356 26
-33.4582 131.186 -424.742 362 25
-32.5601 131.564 -425.967 365 25
-31.2593 131.945 -427.202 369 25
-30.4643 131.947 -427.206 371 25
-30.0636 131.947 -427.208 372 25
-29.3828 131.569 -425.984 373 25
-28.8702 131.953 -427.226 375 25
-28.4704 131.95 -427.218 376 25
-25.2837 131.956 -427.236 384 25
-24.8862 131.957 -427.239 385 25
-22.5 132.139 -427.185 391 25
-22.0969 132.361 -427.254 392 24
-19.9889 131.603 -424.808 396 24
-20.1046 132.367 -427.275 397 24
-19.0538 131.986 -426.044 399 24
-18.1113 132.368 -427.278 402 24
-16.9151 132.37 -427.283 405 24
-16.5175 132.371 -427.287 406 24
-15.4758 131.992 -426.064 408 24
-14.5261 132.374 -427.297 411 24
-13.7275 132.376 -427.302 413 24
-13.0935 131.997 -426.078 414 24
-12.1336 132.379 -427.312 417 24
-10.9373 132.381 -427.318 420 24
-10.1419 132.382 -427.323 422 24
-9.74281 132.386 -427.335 423 24
-8.72175 132.004 -426.103 425 24
-8.10056 131.627 -424.887 426 24
-1.96338 132.414 -426.142 442 23
-0.57333 132.798 -427.378 446 23
0.223907 132.803 -427.393 448 23
0.623348 132.801 -427.385 449 23
1.61306 132.421 -426.163 451 23
2.40966 132.422 -426.167 453 23
3.41465 132.805 -427.401 456 23
5.0093 132.808 -427.41 460 23
18.9661 133.233 -427.49 495 22
19.51 132.851 -426.265 496 22
19.622 133.622 -428.739 497 22
20.9627 133.236 -427.501 500 22
78.9469 135.704 -431.536 645 18
79.747 135.509 -431.558 647 19
80.1527 135.702 -431.531 648 18
81.7638 135.704 -431.537 652 18
82.6108 136.101 -432.8 654 18
83.3784 135.706 -431.544 656 18
84.2267 136.103 -432.806 658 18
85.7938 135.709 -431.554 662 18
87.4051 135.711 -431.561 666 18
88.6718 136.109 -432.825 669 18
100.983 137.334 -435.426 699 17
103.727 136.932 -434.154 706 17
104.64 137.118 -435.385 708 17
104.945 136.938 -434.17 709 17
106.271 137.341 -435.448 712 17
106.565 136.936 -434.165 713 17
108.303 137.344 -435.457 717 17
109.929 137.345 -435.463 721 17
110.744 137.347 -435.467 723 17
111.839 136.946 -434.197 726 17
112.243 136.947 -434.199 727 17
113.178 137.534 -435.414 729 16
114.395 137.535 -435.418 732 16
116.835 137.538 -435.426 738 16
118.056 137.539 -435.431 741 16
118.461 137.539 -435.432 742 16
120.644 137.946 -436.72 747 16
122.437 138.359 -438.025 751 16
84.5844 134.901 -431.547 659 20
84.9871 135.113 -431.582 660 20
-96.6519 130.109 -429.047 207 32
-94.2037 129.98 -427.959 212 31
-93.0766 130.359 -429.207 216 31
-92.2753 130.36 -429.211 218 31
-91.4777 130.362 -429.218 220 31
-90.6765 130.364 -429.223 222 31
-89.8784 130.365 -429.228 224 31
-89.019 129.987 -427.984 225 31
-88.6605 130.528 -429.105 227 31
-87.4248 129.994 -428.004 229 31
-87.1313 130.749 -430.493 232 31
-85.4635 130.535 -429.129 235 31
-84.6625 130.537 -429.135 237 31
-84.2637 130.538 -429.138 238 31
-83.0234 130.164 -427.908 240 31
-81.0456 130.406 -428.046 245 30
-80.6303 130.166 -427.916 246 31
-79.8485 130.408 -428.053 248 30
-79.0492 130.407 -428.049 250 30
-77.8519 130.409 -428.056 253 30
-77.4787 130.791 -429.31 255 30
-76.6582 130.415 -428.074 256 30
-75.4424 130.038 -426.839 258 30
-73.8519 130.045 -426.86 262 30
-70.2772 130.805 -429.357 273 30
-69.4776 130.829 -428.121 274 29
-67.0939 130.079 -425.667 278 29
-66.291 130.455 -426.898 281 29
-65.0888 130.838 -428.151 285 29
-62.3146 130.466 -426.934 291 29
-61.8941 130.841 -428.162 293 29
-60.3484 130.093 -425.712 295 29
-59.5291 130.469 -426.943 298 29
-56.3494 130.707 -427.069 306 28
-55.9494 130.705 -427.062 307 28
-55.5131 131.083 -428.298 309 28
-55.1946 130.331 -425.838 308 28
-53.6072 130.334 -425.848 312 28
-52.7649 130.71 -427.079 315 28
-52.3677 130.711 -427.082 316 28
-51.1194 131.263 -428.231 320 28
-49.9227 131.094 -428.331 323 28
-48.8398 130.513 -425.786 324 28
-42.8105 130.901 -427.052 340 28
-42.4126 131.128 -427.139 341 27
-41.6156 130.904 -427.06 343 28
-40.1889 130.377 -424.694 345 27
-40.4219 131.134 -427.16 346 27
-39.3128 130.757 -425.929 348 27
-38.5171 130.758 -425.934 350 27
-37.2336 131.137 -427.169 354 27
-36.8363 131.138 -427.171 355 27
-36.1362 130.762 -425.947 356 27
-35.6407 131.14 -427.178 358 27
-35.2433 131.141 -427.18 359 27
-34.8458 131.141 -427.181 360 27
-33.458 130.392 -424.743 362 27
-32.8522 131.145 -427.194 365 27
-31.2627 131.323 -427.127 369 27
-30.468 131.325 -427.133 371 27
-30.0635 131.549 -427.209 372 26
-29.6659 131.15 -427.212 373 27
-28.87 131.554 -427.226 375 26
-28.4744 131.329 -427.146 376 27
-25.4093 131.179 -426.008 383 26
-24.886 131.557 -427.238 385 26
-23.6901 131.56 -427.245 388 26
-23.2926 131.561 -427.248 389 26
-22.4943 131.562 -427.253 391 26
-21.573 130.806 -424.799 392 26
-21.6991 131.563 -427.258 393 26
-19.9886 130.809 -424.809 396 26
-19.0535 131.19 -426.044 399 26
-18.4041 130.812 -424.817 400 26
-15.4755 131.196 -426.065 408 26
-13.4897 131.2 -426.076 413 26
-13.0858 131.416 -426.131 414 25
-12.3601 132.177 -428.599 417 25
-11.3367 131.984 -427.327 419 25
-10.9371 131.981 -427.318 420 25
-10.1338 131.799 -427.374 422 25
-9.73465 131.803 -427.386 423 25
-8.93725 131.801 -427.379 425 25
-8.10039 131.23 -424.886 426 25
-8.14669 131.986 -427.334 427 25
-7.52861 131.608 -426.11 428 25
-6.55255 131.989 -427.344 431 25
-5.35781 131.994 -427.36 434 25
-4.5348 131.237 -424.907 435 25
-0.573013 132 -427.378 446 25
0.224228 132.004 -427.393 448 25
0.63274 132.215 -427.427 449 24
1.42845 132.216 -427.431 451 24
1.82797 132.22 -427.442 452 24
8.42236 132.797 -428.664 469 24
11.9524 132.038 -426.212 477 24
14.3383 132.045 -426.234 483 24
15.1353 132.047 -426.24 485 24
17.3813 132.639 -427.508 491 23
18.0325 133.027 -428.757 493 23
18.9766 132.642 -427.516 495 23
19.5205 132.262 -426.291 496 23
21.1113 132.264 -426.298 500 23
80.9563 135.107 -431.562 650 20
81.7636 134.897 -431.535 652 20
82.6107 135.292 -432.798 654 20
83.3758 135.114 -431.585 656 20
86.2434 135.509 -432.846 663 20
91.0979 135.71 -432.843 675 19
90.691 135.707 -432.832 674 19
92.7836 136.11 -434.116 679 19
93.5919 136.107 -434.109 681 19
97.1595 135.715 -432.858 690 19
98.7758 135.717 -432.864 694 19
103.727 136.12 -434.151 706 19
104.54 136.125 -434.165 708 19
104.944 136.125 -434.167 709 19
105.348 136.123 -434.158 710 19
106.565 136.124 -434.164 713 19
114.393 136.718 -435.406 732 18
-99.6712 130.542 -431.8 202 32
-98.3571 130.325 -430.42 204 32
-96.5137 129.2 -426.703 205 32
-96.2746 129.952 -429.187 208 32
-95.4727 129.95 -429.181 210 32
-94.7501 130.332 -430.444 213 32
-93.5468 130.335 -430.453 216 32
-91.0749 129.959 -429.211 221 32
-89.8184 129.589 -427.99 223 32
-89.4168 129.587 -427.982 224 32
-88.6945 130.606 -429.359 227 30
-88.3321 130.346 -430.487 229 32
-86.6917 130.606 -429.36 232 30
-85.8938 130.611 -429.375 234 30
-85.4944 130.611 -429.377 235 30
-79.8485 130.009 -428.054 248 31
-79.447 130.006 -428.047 249 31
-77.8521 130.01 -428.058 253 31
-77.4787 130.39 -429.311 255 31
-76.6583 130.015 -428.076 256 31
-75.4241 129.268 -425.615 257 31
-73.8379 129.271 -425.624 261 31
-73.0759 130.253 -428.198 265 30
-72.2891 130.635 -429.454 268 30
-71.0817 130.259 -428.219 270 30
-70.6802 130.257 -428.211 271 30
-69.8813 129.883 -426.982 272 30
-69.4857 130.262 -428.229 274 30
-69.0761 130.427 -428.114 275 30
-68.686 130.261 -428.223 276 30
-67.0882 130.055 -426.894 279 30
-66.291 130.057 -426.899 281 30
-65.0888 130.438 -428.151 285 30
-64.3144 130.52 -427.109 286 28
-63.8911 130.441 -428.159 288 30
-63.5039 130.902 -428.358 289 28
-63.1087 130.063 -426.92 289 30
-62.7038 130.903 -428.362 291 28
-62.3053 130.904 -428.363 292 28
-61.9039 130.901 -428.356 293 28
-60.7322 130.529 -427.136 295 28
-59.5646 130.152 -425.905 297 28
-58.7656 129.927 -425.819 299 29
-58.3388 130.302 -427.048 301 29
-57.5413 130.304 -427.053 303 29
-57.1098 130.681 -428.29 305 29
-56.3494 130.309 -427.07 306 29
-55.9492 130.306 -427.062 307 29
-55.5131 130.684 -428.299 309 29
-54.3146 130.685 -428.305 312 29
-53.916 130.689 -428.318 313 29
-52.0175 130.109 -425.766 316 29
-50.7738 130.487 -427.001 320 29
-50.3758 130.94 -427.177 321 27
-49.5791 130.489 -427.009 323 29
-48.8398 130.116 -425.787 324 29
-48.3853 130.718 -427.104 326 28
-46.8568 130.346 -425.887 329 28
-45.995 130.723 -427.119 332 28
-44.9418 129.975 -424.677 333 28
-44.0051 130.726 -427.13 337 28
-43.6078 130.727 -427.133 338 28
-42.4125 130.729 -427.139 341 28
-41.6106 131.175 -427.289 343 26
-40.1888 129.981 -424.695 345 28
-40.4217 130.735 -427.161 346 28
-39.3127 130.359 -425.93 348 28
-38.6537 131.496 -429.646 352 28
-37.2336 130.738 -427.169 354 28
-36.83 131.181 -427.31 355 26
-36.0339 131.185 -427.322 357 26
-35.6406 130.741 -427.178 358 28
-35.2362 131.183 -427.315 359 26
-32.5559 130.988 -426.035 365 26
-31.3675 130.77 -425.974 368 27
-28.8699 131.155 -427.226 375 27
-25.8066 130.777 -425.996 382 27
-25.0128 130.781 -426.011 384 27
-23.69 131.161 -427.246 388 27
-22.4941 131.163 -427.253 391 27
-22.0965 131.164 -427.256 392 27
-21.6989 131.164 -427.258 393 27
-21.2981 131.165 -427.259 394 27
-19.9884 130.412 -424.809 396 27
-20.1042 131.17 -427.276 397 27
-19.2938 131.602 -427.38 399 25
-18.1175 131.749 -427.214 402 26
-17.1716 132.135 -428.465 405 26
-12.1333 131.58 -427.312 417 26
-11.3366 131.585 -427.326 419 26
-10.937 131.582 -427.318 420 26
-8.87821 131.258 -424.973 424 24
-8.10023 130.833 -424.886 426 26
-8.14654 131.587 -427.334 427 26
-7.512 131.637 -426.2 428 24
-6.73204 131.212 -426.115 430 26
-6.14632 131.805 -427.393 432 25
-5.53384 131.427 -426.168 433 25
-4.94112 132.019 -427.44 435 24
-3.3552 131.809 -427.407 439 25
-2.17238 132.579 -429.901 443 25
-0.958149 131.055 -424.959 444 25
0.632877 131.816 -427.427 449 25
1.23336 132.197 -428.664 451 25
2.20513 131.248 -424.945 452 25
3.41496 132.007 -427.401 456 25
5.00961 132.009 -427.409 460 25
5.7717 131.254 -424.964 461 25
5.79559 132.197 -427.371 462 25
7.35877 131.254 -424.964 465 25
8.44184 132.819 -428.73 469 23
9.35162 131.47 -425.019 470 24
10.423 132.404 -428.686 474 25
10.991 132.02 -427.444 475 25
11.7868 132.021 -427.448 477 25
12.9734 132.61 -427.417 480 24
14.3583 132.062 -426.289 483 23
15.3675 132.615 -427.432 486 24
15.7655 132.616 -427.435 487 24
16.5647 132.618 -427.441 489 24
17.3606 132.619 -427.445 491 24
17.7606 132.623 -427.458 492 24
18.9558 132.622 -427.456 495 24
19.4996 132.243 -426.232 496 24
20.9523 132.626 -427.469 500 24
21.3503 132.627 -427.471 501 24
28.823 115.274 -369.869 504 22
78.943 134.704 -431.562 645 21
79.3447 134.701 -431.553 646 21
79.7469 134.702 -431.556 647 21
80.149 134.702 -431.558 648 21
80.9563 134.703 -431.561 650 21
82.5678 134.706 -431.569 654 21
83.8205 135.101 -432.834 657 21
86.2434 135.104 -432.846 663 21
86.6504 135.108 -432.858 664 21
86.5479 134.724 -430.339 664 20
87.003 134.904 -431.557 665 20
87.0531 135.105 -432.849 665 21
88.6698 135.513 -432.858 669 20
89.073 135.108 -432.859 670 21
89.8845 135.301 -432.827 672 20
90.2878 135.302 -432.83 673 20
90.6869 135.727 -432.898 674 20
91.8373 134.91 -431.577 677 20
92.7136 135.305 -432.838 679 20
93.5201 135.306 -432.842 681 20
93.9271 135.309 -432.854 682 20
94.3299 135.307 -432.845 683 20
94.7329 135.522 -432.887 684 20
96.0257 135.708 -434.129 687 20
97.2423 135.709 -434.134 690 20
97.5629 135.311 -432.86 691 20
97.9659 135.311 -432.86 692 20
98.3732 135.315 -432.873 693 20
99.179 135.313 -432.865 695 20
100.08 135.713 -434.145 697 20
100.796 135.315 -432.873 699 20
101.204 135.535 -432.93 700 20
101.608 135.747 -432.962 701 20
102.51 135.713 -434.145 703 20
102.82 135.321 -432.891 704 20
106.156 135.906 -434.114 712 19
108.186 136.126 -434.17 717 19
108.595 136.13 -434.181 718 19
109 136.131 -434.183 719 19
109.929 136.531 -435.461 721 19
110.743 136.532 -435.464 723 19
111.025 136.13 -434.181 724 19
111.31 135.952 -432.97 725 19
111.832 135.912 -434.134 726 19
112.243 136.135 -434.197 727 19
113.185 136.535 -435.474 729 19
113.596 136.756 -435.531 730 19
113.856 135.911 -434.129 731 19
114.803 136.314 -435.415 733 19
115.623 136.538 -435.484 735 19
115.753 135.739 -432.935 736 19
118.355 137.351 -438.076 741 19
118.477 136.764 -435.556 742 19
119.285 136.543 -435.499 744 19
120.654 136.947 -436.786 747 19
121.079 137.392 -436.906 748 19
121.878 136.948 -436.791 750 19
121.713 136.728 -435.44 750 18
122.132 136.547 -435.51 751 19
123.671 137.355 -438.088 754 19
84.1821 134.497 -431.544 658 21
84.987 134.71 -431.581 660 21
13.2841 -9.31077 43.3608 289 31
82.5709 134.091 -431.537 654 22
83.0105 134.694 -432.828 655 22
83.8234 134.484 -432.801 657 22
84.1821 134.093 -431.543 658 22
84.9895 134.095 -431.547 660 22
85.3914 134.095 -431.548 661 22
86.2457 134.487 -432.811 663 22
104.535 135.093 -434.108 708 21
104.94 135.093 -434.109 709 21
106.156 135.095 -434.113 712 21
106.565 135.312 -434.161 713 21
124.546 138.862 -436.397 757 7
-99.161 129.52 -430.419 202 34
-97.7442 128.287 -427.651 203 36
-99.9603 130.322 -430.409 200 32
-97.5354 129.281 -430.292 206 35
-96.4701 127.921 -426.431 205 36
-96.2537 128.909 -429.055 208 35
-95.8548 128.91 -429.057 209 35
-95.5294 129.285 -430.306 211 35
-94.6759 129.154 -429.2 212 34
-94.277 129.155 -429.203 213 34
-93.4561 128.915 -429.076 215 35
-93.0573 128.916 -429.078 216 35
-92.3435 129.534 -430.464 219 34
-90.9928 128.545 -427.844 220 35
-188.502 137.361 -559.243 222 34
-182.916 133.17 -544.129 223 34
-89.4579 129.321 -429.093 225 34
-89.0597 129.326 -429.107 226 34
-88.6786 129.166 -429.24 227 34
-87.86 129.328 -429.115 229 34
-87.4782 129.569 -429.247 230 33
-86.6598 129.328 -429.114 232 34
-86.2614 129.332 -429.127 233 34
-85.8626 129.333 -429.13 234 34
-85.4637 129.334 -429.133 235 34
-84.6174 128.959 -427.891 236 34
-148.27 110.323 -448.993 238 33
-84.2938 129.812 -429.387 238 32
-83.4499 129.435 -428.14 239 32
-83.9202 129.952 -430.517 240 33
-82.2774 129.576 -429.271 243 33
-81.4796 129.581 -429.286 245 33
-81.0803 129.581 -429.288 246 33
-79.4471 129.207 -428.049 249 33
-79.0492 129.208 -428.052 250 33
-77.8521 129.211 -428.06 253 33
-77.4542 129.211 -428.063 254 33
-76.6693 129.45 -428.189 256 32
-93.1499 70.8026 -289.209 256 33
-75.424 128.473 -425.616 257 33
-73.8519 128.849 -426.863 262 33
-73.0663 129.22 -428.091 265 33
-71.8691 129.222 -428.099 268 33
-71.0731 129.227 -428.115 270 33
-70.6513 129.153 -427.873 271 34
-69.8663 129.395 -428.009 273 33
-38.7694 30.6948 -123.033 273 32
-69.4682 129.395 -428.011 274 33
-69.0761 129.627 -428.116 275 32
-21.3578 17.4595 -68.0665 278 32
-9.95984 8.68879 -31.6121 280 32
-66.2979 129.491 -427.004 281 31
-65.8864 129.426 -426.795 282 32
-65.4868 129.638 -428.15 284 32
-65.0886 129.639 -428.153 285 32
-64.2958 129.43 -426.806 286 32
-63.891 129.641 -428.161 288 32
-63.1087 129.266 -426.923 289 32
-61.8939 129.642 -428.164 293 32
-61.0973 129.646 -428.179 295 32
-61.4737 130.422 -429.416 295 31
-60.6993 129.648 -428.182 296 32
-59.8998 129.646 -428.177 298 32
-58.7612 128.903 -425.724 299 32
-58.3347 129.276 -426.954 301 32
-57.5374 129.277 -426.959 303 32
-57.1059 129.652 -428.196 305 32
-56.3519 129.738 -427.159 306 30
-55.9491 129.509 -427.064 307 31
-55.5128 129.883 -428.299 309 31
-54.3165 130.113 -428.394 312 30
-53.9178 130.116 -428.406 313 30
-52.7595 129.854 -426.891 315 31
-52.0173 129.314 -425.767 316 31
-51.5678 129.688 -426.997 318 31
-51.1208 129.891 -428.324 320 31
-50.3733 129.69 -427.005 321 31
-49.5788 129.691 -427.01 323 31
-49.1813 129.695 -427.023 324 31
-48.7813 129.693 -427.015 325 31
-48.3854 130.145 -427.188 326 29
-46.8563 128.754 -425.888 329 32
-46.3291 129.502 -428.363 332 32
-44.9411 128.732 -424.503 333 32
-44.0767 129.103 -425.728 336 32
-43.608 129.703 -427.049 338 31
-42.8102 129.705 -427.054 340 31
-42.4122 129.931 -427.14 341 30
-42.0158 129.707 -427.06 342 31
-40.2708 128.818 -423.481 344 30
-40.4215 129.937 -427.161 346 30
-39.314 129.339 -425.85 348 31
-38.5184 129.341 -425.855 350 31
-38.0314 129.939 -427.166 352 30
-37.4135 129.413 -424.782 352 29
-37.2355 130.115 -427.09 354 30
-36.0403 129.945 -427.187 357 30
-35.2429 129.943 -427.18 359 30
-34.8455 129.944 -427.184 360 30
-34.0474 129.946 -427.188 362 30
-33.3553 129.573 -425.964 363 30
-32.5594 129.575 -425.969 365 30
-32.1631 129.576 -425.971 366 30
-31.5465 130.55 -428.515 369 29
-30.6886 129.383 -424.686 369 30
-30.063 130.351 -427.21 372 29
-29.2681 130.353 -427.215 374 29
-28.3526 130.731 -428.455 377 29
-27.2763 130.359 -427.236 379 29
-26.6013 129.983 -426.002 380 29
-25.8063 129.981 -425.997 382 29
-25.0071 130.204 -426.073 384 28
-22.4937 130.364 -427.253 391 29
-22.0962 130.365 -427.255 392 29
-21.6986 130.366 -427.257 393 29
-21.2978 130.367 -427.26 394 29
-20.1039 130.372 -427.277 397 29
-19.0531 129.996 -426.045 399 29
-18.5164 130.155 -427.222 401 30
-18.1168 130.153 -427.215 402 30
-17.7129 130.373 -427.28 403 29
-16.9144 130.374 -427.285 405 29
-16.5233 130.156 -427.225 406 30
-15.475 130.002 -426.066 408 29
-14.923 130.378 -427.296 410 29
-14.5182 130.595 -427.352 411 28
-13.8859 130.403 -426.074 412 28
-13.1 130.187 -426.02 414 29
-12.133 130.782 -427.312 417 28
-11.7276 130.599 -427.367 418 28
-11.3363 130.786 -427.327 419 28
-10.9367 130.784 -427.319 420 28
-8.94491 130.787 -427.33 425 28
-8.53781 131.006 -427.392 426 27
-7.92473 130.413 -426.108 427 28
-7.3508 130.79 -427.34 429 28
-6.15433 130.792 -427.346 432 28
-5.35734 130.797 -427.361 434 28
-4.53431 130.045 -424.906 435 28
-4.56008 130.795 -427.355 436 28
-3.36353 130.797 -427.362 439 28
-2.96576 130.798 -427.364 440 28
-1.76917 130.8 -427.371 443 28
-0.970333 130.801 -427.375 445 28
-0.572536 130.802 -427.377 446 28
107.303 -100.145 446.809 447 27
0.224705 130.806 -427.392 448 28
0.624138 130.804 -427.384 449 28
1.41977 130.805 -427.388 451 28
2.41047 130.431 -426.167 453 28
2.20951 130.592 -427.346 453 29
3.59448 130.22 -426.127 456 29
4.19215 130.779 -427.307 458 29
5.00065 130.598 -427.364 460 29
5.59074 130.038 -426.184 461 29
5.78651 130.783 -427.318 462 29
6.21507 130.629 -427.463 463 28
7.02179 130.836 -427.488 465 27
7.39056 131.401 -427.38 466 27
8.61679 130.838 -427.494 469 27
9.1808 130.255 -426.239 470 28
10.2732 131.602 -429.99 474 27
11.0013 131.032 -427.477 475 27
11.7872 131.223 -427.448 477 27
12.1983 131.034 -427.482 478 27
12.9942 131.035 -427.485 480 27
14.1813 131.227 -427.461 483 27
14.5793 131.228 -427.464 484 27
15.3785 131.229 -427.468 486 27
15.7764 131.23 -427.471 487 27
16.1641 131.019 -427.437 488 28
16.5756 131.231 -427.474 489 27
17.1231 130.855 -426.249 490 27
19.5208 131.067 -426.289 496 26
19.6329 131.828 -428.765 497 26
20.164 131.636 -427.495 498 26
21.1116 131.069 -426.297 500 26
21.3508 131.429 -427.47 501 27
23.0857 127.558 -415.509 502 27
29.1784 113.719 -369.868 505 26
30.8523 113.133 -370.774 510 26
32.9259 113.133 -370.775 516 26
34.3099 113.131 -370.768 520 26
37.0767 113.131 -370.77 528 26
37.4634 113.732 -369.91 529 26
38.8526 113.906 -369.912 533 25
41.6145 113.907 -369.915 541 25
43.0598 113.625 -369 545 25
44.7202 113.91 -369.925 550 25
46.7368 114.199 -370.865 556 25
49.454 112.51 -365.379 563 25
50.9134 113.481 -370.78 568 25
54.0502 114.09 -369.947 577 24
55.415 113.646 -370.754 581 24
77.308 133.291 -430.254 641 23
78.1352 133.892 -431.545 643 23
78.9785 133.864 -432.756 645 23
78.5165 133.084 -430.235 644 23
79.3395 134.102 -431.572 646 23
80.594 133.866 -432.761 649 23
80.9944 134.076 -432.788 650 23
87.0028 134.097 -431.555 665 22
87.8659 134.277 -432.786 667 22
88.2125 133.884 -431.517 668 22
89.0749 134.276 -432.78 670 22
89.4217 134.1 -431.566 671 22
90.2875 134.277 -432.784 673 22
90.6274 133.886 -431.525 674 22
91.0327 133.887 -431.527 675 22
91.9032 134.278 -432.789 677 22
92.7826 134.675 -434.068 679 22
93.926 134.284 -432.806 682 22
94.3283 134.281 -432.796 683 22
94.7329 134.498 -432.845 684 22
95.5434 134.502 -432.859 686 22
95.9461 134.499 -432.85 687 22
97.157 134.284 -432.805 690 22
96.7565 134.504 -432.864 689 22
97.5603 134.284 -432.807 691 22
98.3706 134.288 -432.82 693 22
100.88 134.865 -434.025 699 21
101.289 134.869 -434.037 700 21
101.597 134.472 -432.762 701 21
102.506 135.088 -434.09 703 21
105.752 135.094 -434.111 711 21
107.373 135.096 -434.117 715 21
108.181 135.094 -434.11 717 21
108.589 135.097 -434.12 718 21
108.986 134.874 -434.055 719 21
109.914 135.271 -435.331 721 21
110.202 134.876 -434.059 722 21
111.018 135.096 -434.118 724 21
111.948 135.272 -435.337 726 21
112.236 135.101 -434.132 727 21
113.168 135.273 -435.34 729 21
113.574 135.274 -435.341 730 21
113.988 135.499 -435.411 731 21
114.81 135.723 -435.478 733 21
115.871 134.877 -434.063 736 21
116.305 135.548 -434.268 737 21
117.23 135.684 -435.351 739 20
117.496 134.881 -434.077 740 21
120.618 135.856 -436.557 747 20
121.7 135.687 -435.361 750 20
122.121 135.915 -435.44 751 20
122.186 135.069 -432.73 752 19
122.92 135.688 -435.365 753 20
124.49 136.946 -438.09 756 20
-98.1608 128.711 -427.063 201 32
-96.572 128.134 -427.804 206 36
-94.2043 128.382 -427.965 212 35
-92.3433 129.132 -430.464 219 35
-91.0753 128.757 -429.215 221 35
-90.6582 128.922 -429.096 222 35
-89.8187 128.391 -427.994 223 35
-89.4762 128.761 -429.226 225 35
-89.0778 128.765 -429.239 226 35
-88.6786 128.765 -429.241 227 35
-87.4252 128.396 -428.01 229 35
-87.1317 129.142 -430.499 232 35
-85.8627 128.932 -429.132 234 35
-85.4638 128.933 -429.135 235 35
-84.663 128.935 -429.141 237 35
-84.2639 128.936 -429.144 238 35
-83.0642 128.939 -429.153 241 35
-80.6441 128.805 -428.042 246 34
-79.8486 128.81 -428.058 248 34
-79.0204 128.438 -426.82 249 34
-77.8521 128.811 -428.061 253 34
-77.4788 129.188 -429.314 255 34
-76.6583 128.816 -428.079 256 34
-75.4425 128.445 -426.844 258 34
-73.8519 128.451 -426.864 262 34
-73.0664 128.82 -428.092 265 34
-71.869 128.823 -428.1 268 34
-71.0731 128.827 -428.116 270 34
-69.0762 129.228 -428.117 275 33
-69.0843 129.434 -429.465 276 33
-67.0881 128.86 -426.897 279 33
-66.291 128.861 -426.903 281 33
-65.0886 129.239 -428.154 285 33
-63.4929 129.242 -428.165 289 33
-62.3145 128.872 -426.939 291 33
-61.8939 129.242 -428.165 293 33
-61.0973 129.247 -428.18 295 33
-60.699 129.247 -428.182 296 33
-59.529 128.875 -426.947 298 33
-58.7612 128.506 -425.725 299 33
-58.3346 128.877 -426.954 301 33
-57.5371 128.878 -426.959 303 33
-56.3493 129.112 -427.073 306 32
-55.5129 129.484 -428.301 309 32
-52.7646 129.115 -427.082 315 32
-52.0191 128.746 -425.859 316 32
-51.5678 129.289 -426.998 318 32
-50.7752 129.119 -427.094 320 32
-50.3747 129.12 -427.096 321 32
-49.5801 129.121 -427.101 323 32
-49.1823 129.125 -427.113 324 32
-48.7821 129.122 -427.104 325 32
-48.3849 129.123 -427.107 326 32
-46.9194 128.557 -424.581 328 32
-44.1484 128.563 -424.599 335 32
-42.8855 128.935 -425.828 339 32
-42.4129 129.307 -427.057 341 32
-41.6142 129.533 -427.145 343 31
-40.2707 128.422 -423.482 344 31
-40.4213 129.538 -427.161 346 31
-39.3975 128.795 -424.711 347 31
-37.4161 128.795 -424.711 352 31
-35.6402 129.544 -427.179 358 31
-35.2428 129.545 -427.182 359 31
-34.8453 129.545 -427.183 360 31
-33.4574 128.805 -424.744 362 31
-33.6497 129.547 -427.19 363 31
-32.5593 129.177 -425.97 365 31
-32.163 129.178 -425.972 366 31
-31.4758 128.805 -424.744 367 31
-30.4674 129.73 -427.135 371 31
-28.4738 129.733 -427.147 376 31
-27.2762 129.96 -427.237 379 30
-26.6012 129.585 -426.003 380 30
-25.8062 129.583 -425.997 382 30
-25.0124 129.588 -426.012 384 30
-23.9495 129.218 -424.797 386 30
-22.6274 129.592 -426.024 390 30
-22.0961 129.966 -427.256 392 30
-21.6985 129.967 -427.257 393 30
-21.2976 129.967 -427.26 394 30
-19.988 129.222 -424.81 396 30
-20.1037 129.973 -427.277 397 30
-19.0529 129.598 -426.045 399 30
-18.6565 129.599 -426.047 400 30
-16.9143 129.975 -427.285 405 30
-15.4749 129.604 -426.066 408 30
-14.5251 129.979 -427.298 411 30
-13.2456 129.451 -424.909 413 29
-12.1252 130.199 -427.363 417 29
-11.7275 130.2 -427.366 418 29
-11.3284 130.203 -427.378 419 29
-10.9287 130.201 -427.37 420 29
-10.531 130.202 -427.373 421 29
-8.32113 130.014 -426.105 426 29
-7.92455 130.015 -426.107 427 29
-7.35061 130.391 -427.339 429 29
-6.73157 130.017 -426.116 430 29
-6.15417 130.393 -427.346 432 29
-5.35718 130.397 -427.361 434 29
-4.53415 129.648 -424.906 435 29
-4.55991 130.396 -427.355 436 29
-3.36337 130.398 -427.362 439 29
-1.76901 130.4 -427.37 443 29
-0.970173 130.402 -427.375 445 29
-0.572376 130.402 -427.377 446 29
0.224865 130.407 -427.392 448 29
0.624298 130.404 -427.383 449 29
1.41993 130.406 -427.389 451 29
2.20575 129.66 -424.943 452 29
5.01961 130.624 -427.447 460 28
5.41751 130.625 -427.45 461 28
7.36893 129.876 -424.999 465 28
11.7873 130.823 -427.448 477 28
14.1815 130.827 -427.461 483 28
14.5794 130.828 -427.464 484 28
15.3786 130.829 -427.468 486 28
15.7766 130.83 -427.47 487 28
16.5758 130.831 -427.474 489 28
17.3717 130.833 -427.479 491 28
17.7718 130.837 -427.491 492 28
18.967 130.836 -427.488 495 28
19.5108 130.46 -426.262 496 28
21.1016 130.463 -426.272 500 28
81.3616 133.686 -431.531 651 23
81.7637 133.687 -431.533 652 23
82.5709 133.688 -431.536 654 23
83.8248 133.866 -432.762 657 23
86.6524 134.086 -432.822 664 23
87.0027 133.693 -431.554 665 23
89.8843 134.087 -432.825 672 23
92.7134 134.091 -432.836 679 23
95.0602 133.704 -431.587 685 23
99.1759 134.285 -432.811 695 22
100.077 134.683 -434.092 697 22
102.506 134.682 -434.089 703 22
102.815 134.293 -432.835 704 22
103.722 134.683 -434.094 706 22
105.343 134.685 -434.099 710 22
105.752 134.689 -434.111 711 22
106.56 134.686 -434.103 713 22
107.372 134.69 -434.115 715 22
108.18 134.688 -434.108 717 22
112.362 135.09 -435.405 727 22
114.401 135.315 -435.476 732 22
114.803 135.093 -435.414 733 22
115.614 135.094 -435.416 735 22
119.411 135.676 -436.636 744 21
120.49 135.095 -435.422 747 22
121.855 135.678 -436.642 750 21
104.024 134.291 -432.828 707 22
83.7802 133.286 -431.541 657 24
84.584 133.287 -431.543 659 24
84.9895 133.288 -431.546 660 24
85.3914 133.288 -431.547 661 24
86.2455 133.678 -432.809 663 24
-82.2392 128.403 -428.033 242 35
-80.6443 128.406 -428.044 246 35
-79.8487 128.411 -428.059 248 35
-68.678 128.829 -428.121 276 34
-67.0937 128.092 -425.672 278 34
-27.276 129.561 -427.236 379 31
-26.8762 129.559 -427.229 380 31
-9.74188 129.991 -427.336 423 30
89.8841 133.682 -432.823 672 24
-98.0333 126.48 -426.275 201 40
-96.2113 125.399 -422.632 202 40
-96.2539 127.708 -429.059 208 38
-95.4527 127.707 -429.055 210 38
-94.2569 127.712 -429.073 213 38
-93.0142 127.229 -428.799 216 40
-92.214 127.231 -428.806 218 40
-91.012 127.587 -427.979 220 37
-90.6772 127.96 -429.232 222 37
-89.8791 127.962 -429.236 224 37
-89.4765 127.959 -429.229 225 37
-89.078 127.963 -429.242 226 37
-88.6611 128.125 -429.114 227 37
-87.4253 127.597 -428.012 229 37
-86.6768 127.965 -429.247 232 37
-85.4802 127.97 -429.265 235 37
-84.6787 127.972 -429.27 237 37
-84.2641 128.135 -429.147 238 37
-83.0238 127.767 -427.916 240 37
-82.2247 127.766 -427.912 242 37
-81.8269 127.767 -427.915 243 37
-129.505 96.0979 -396.553 245 36
-81.0112 127.64 -426.82 244 36
-80.6443 128.006 -428.045 246 36
-79.8486 128.011 -428.06 248 36
-79.4473 128.009 -428.053 249 36
-79.0493 128.01 -428.056 250 36
-78.6516 128.013 -428.068 251 36
-77.8521 128.012 -428.063 253 36
-77.4661 128.55 -429.195 255 36
-76.6583 128.017 -428.081 256 36
-75.4425 127.648 -426.846 258 36
-73.8518 127.654 -426.865 262 36
-73.0663 128.021 -428.094 265 36
-71.869 128.023 -428.102 268 36
-71.0729 128.028 -428.117 270 36
-70.6718 128.026 -428.111 271 36
-69.8755 128.03 -428.125 273 36
-69.4774 128.031 -428.128 274 36
-69.067 128.195 -428.008 275 36
-68.686 128.262 -428.229 276 35
-67.1064 127.162 -424.557 277 35
-66.2978 127.896 -427.008 281 35
-65.4831 128.642 -429.498 285 35
-64.2891 128.438 -428.151 287 35
-62.6931 128.444 -428.171 291 35
-62.295 128.445 -428.174 292 35
-61.8937 128.443 -428.166 293 35
-61.0971 128.447 -428.181 295 35
-60.6991 128.448 -428.185 296 35
-59.5289 128.077 -426.949 298 35
-58.7611 127.711 -425.727 299 35
-58.3344 128.08 -426.956 301 35
-57.5371 128.081 -426.962 303 35
-57.1057 128.452 -428.198 305 35
-56.3456 128.087 -426.979 306 35
-55.9455 128.084 -426.972 307 35
-55.5094 128.455 -428.207 309 35
-55.1913 127.718 -425.75 308 35
-53.6067 127.948 -425.852 312 34
-53.9156 128.69 -428.322 313 34
-52.7645 128.318 -427.084 315 34
-52.0169 127.724 -425.77 316 35
-51.2216 127.725 -425.775 318 35
-50.319 128.865 -428.241 322 34
-49.5798 128.323 -427.101 323 34
-48.503 127.59 -424.66 324 34
-48.782 128.324 -427.106 325 34
-48.3848 128.724 -427.107 326 33
-46.7923 128.328 -427.117 330 34
-45.9945 128.329 -427.123 332 34
-45.1997 128.33 -427.126 334 34
-44.4018 128.332 -427.131 336 34
-43.6076 128.507 -427.051 338 34
-42.8098 128.509 -427.056 340 34
-42.4125 128.509 -427.058 341 34
-42.0154 128.51 -427.062 342 34
-41.6148 128.511 -427.063 343 34
-40.2719 127.409 -423.403 344 34
-40.4212 128.741 -427.163 346 33
-39.3121 128.37 -425.933 348 33
-38.4284 128.741 -427.164 351 33
-38.2087 128.004 -424.718 350 33
-37.325 128.37 -425.933 353 33
-35.64 128.746 -427.18 358 33
-35.2425 128.747 -427.182 359 33
-34.8451 128.747 -427.185 360 33
-33.4571 128.012 -424.744 362 33
-33.6495 128.749 -427.192 363 33
-32.559 128.381 -425.97 365 33
-32.1627 128.382 -425.972 366 33
-31.4756 128.012 -424.746 367 33
-30.4633 128.755 -427.209 371 33
-30.0625 128.755 -427.212 372 33
-29.3819 128.387 -425.988 373 33
-28.8691 128.76 -427.228 375 33
-28.352 129.13 -428.456 377 33
-27.4013 128.567 -425.928 378 33
-26.8761 129.16 -427.229 380 32
-25.2827 129.163 -427.238 384 32
-24.8852 129.163 -427.24 385 32
-23.6893 129.165 -427.247 388 32
-23.2917 129.166 -427.25 389 32
-22.6271 128.796 -426.025 390 32
-21.5721 128.426 -424.801 392 32
-21.6982 129.169 -427.258 393 32
-19.8455 128.801 -426.041 397 32
-19.0526 128.802 -426.045 399 32
-18.1101 129.175 -427.279 402 32
-16.9139 129.177 -427.286 405 32
-16.5163 129.178 -427.288 406 32
-15.4746 128.808 -426.066 408 32
-14.5249 129.181 -427.299 411 32
-13.4887 128.811 -426.076 413 32
-13.0922 128.812 -426.079 414 32
-12.1323 129.185 -427.312 417 32
-11.3356 129.189 -427.326 419 32
-11.2705 128.443 -424.858 418 32
-10.133 129.404 -427.374 422 31
-9.73382 129.407 -427.386 423 31
-8.88554 128.664 -424.931 424 31
-8.31272 129.034 -426.154 426 31
-7.91611 129.035 -426.157 427 31
-6.55158 129.594 -427.344 431 31
-6.15386 129.595 -427.347 432 31
-5.13312 129.039 -426.169 434 31
-4.53384 128.855 -424.907 435 31
-4.55959 129.597 -427.355 436 31
-3.36304 129.599 -427.361 439 31
-1.76869 129.602 -427.371 443 31
-0.969852 129.603 -427.375 445 31
-0.572052 129.604 -427.378 446 31
0.225185 129.608 -427.392 448 31
0.624619 129.606 -427.384 449 31
1.61432 129.235 -426.162 451 31
2.41093 129.236 -426.166 453 31
2.219 130.008 -427.393 453 30
3.62546 129.986 -428.636 457 31
5.01056 129.613 -427.408 460 31
5.77265 128.872 -424.964 461 31
7.80219 129.618 -427.424 467 31
8.59797 129.62 -427.429 469 31
9.39702 129.621 -427.434 471 31
10.2025 129.833 -427.472 473 30
11.7975 129.835 -427.48 477 30
12.1987 129.836 -427.482 478 30
12.9946 129.837 -427.486 480 30
14.3492 129.465 -426.263 483 30
15.3789 130.031 -427.467 486 30
15.7769 130.031 -427.47 487 30
16.5761 130.033 -427.474 489 30
17.372 130.034 -427.478 491 30
17.7721 130.038 -427.491 492 30
18.9673 130.037 -427.487 495 30
19.5111 129.664 -426.262 496 30
19.6231 130.417 -428.737 497 30
20.9639 130.04 -427.498 500 30
21.3619 130.041 -427.501 501 30
23.0861 126.393 -415.508 502 30
23.9787 125.839 -414.325 504 31
23.9595 124.592 -410.852 503 32
29.1694 112.161 -369.859 505 31
31.0004 111.717 -368.961 510 31
32.4691 111.439 -368.044 514 31
33.8515 111.613 -368.05 518 30
36.8041 113.305 -373.631 528 30
37.4639 112.349 -369.909 529 30
38.8445 112.351 -369.915 533 30
41.6064 112.352 -369.918 541 30
43.0519 112.075 -369.004 545 30
44.7126 112.356 -369.931 550 30
45.5796 111.523 -367.188 552 30
49.4672 111.475 -365.342 563 27
50.8572 113.437 -371.771 568 27
54.0441 112.539 -369.963 577 29
55.3227 113.389 -372.756 581 29
77.2838 131.702 -429.007 641 26
78.9466 132.476 -431.529 645 26
79.3483 132.474 -431.52 646 26
79.7504 132.474 -431.523 647 26
80.1522 132.475 -431.524 648 26
80.9596 132.476 -431.527 650 26
81.3615 132.476 -431.529 651 26
81.7633 132.476 -431.53 652 26
82.5726 132.668 -431.497 654 25
82.9745 132.669 -431.498 655 25
83.378 132.479 -431.537 656 26
84.6309 133.057 -432.763 659 25
84.9906 132.671 -431.505 660 25
85.3926 132.671 -431.507 661 25
86.2466 133.059 -432.769 663 25
86.5505 132.288 -430.259 664 25
87.4045 132.484 -431.553 666 26
88.6712 132.872 -432.817 669 26
89.0743 132.872 -432.819 670 26
89.8841 133.063 -432.78 672 25
90.1626 132.717 -430.351 673 25
90.6903 133.063 -432.782 674 25
91.8363 132.678 -431.527 677 25
91.4345 132.677 -431.527 676 25
92.7126 133.066 -432.789 679 25
93.4412 132.242 -431.421 681 25
93.7805 132.295 -430.282 682 25
94.3289 133.497 -432.879 683 25
96.0236 133.461 -434.076 687 25
96.3489 133.286 -432.848 688 25
97.1569 133.07 -432.804 690 25
97.5599 133.07 -432.804 691 25
97.9632 133.071 -432.807 692 25
98.3702 133.074 -432.817 693 25
99.1783 133.289 -432.86 695 25
99.5792 133.477 -432.812 696 24
100.885 133.463 -434.082 699 25
101.199 133.077 -432.828 700 25
101.601 133.074 -432.818 701 25
102.187 133.414 -435.244 702 25
102.509 134.089 -434.14 703 24
102.314 132.905 -431.614 703 25
103.722 133.872 -434.092 706 24
104.535 133.875 -434.104 708 24
105.343 133.873 -434.097 710 24
106.156 133.877 -434.11 712 24
106.443 133.262 -432.771 713 24
107.377 133.692 -434.17 715 25
108.18 133.876 -434.106 717 24
107.777 133.879 -434.116 716 24
108.589 133.474 -434.117 718 25
108.993 133.474 -434.118 719 25
109.928 134.495 -435.455 721 24
110.202 133.658 -434.058 722 24
112.235 133.883 -434.129 727 24
113.176 134.277 -435.406 729 24
113.582 134.684 -435.409 730 23
114.793 134.461 -435.343 733 23
115.614 134.279 -435.415 735 24
116.428 134.28 -435.417 737 24
116.279 134.068 -434.072 737 23
117.506 133.889 -434.147 740 24
119.411 134.86 -436.635 744 23
119.669 134.465 -435.355 745 23
120.49 134.281 -435.419 747 24
121.514 133.611 -433.902 750 23
122.278 134.684 -436.727 751 24
123.15 133.436 -433.994 754 24
124.465 135.262 -437.936 756 23
84.5839 132.48 -431.542 659 26
120.822 132.611 -428.061 750 24
-98.2728 126.74 -429.175 203 40
-97.3937 126.379 -427.952 204 40
-95.8768 126.748 -429.201 209 40
-94.2355 127.07 -428.936 213 40
-92.9677 126.706 -427.709 215 40
-92.257 127.316 -429.091 218 39
-90.9302 126.583 -426.619 219 39
-89.8611 127.322 -429.108 224 39
-89.0019 126.953 -427.865 225 39
-88.6789 127.563 -429.245 227 38
-87.4086 126.959 -427.887 229 39
-86.1624 126.593 -426.654 231 39
-85.4641 127.331 -429.141 235 39
-84.6177 126.962 -427.897 236 39
-83.0238 126.969 -427.919 240 39
-82.2248 127.367 -427.914 242 38
-82.2776 127.573 -429.277 243 38
-81.0318 127.372 -427.932 245 38
-80.6306 127.37 -427.926 246 38
-79.7892 126.768 -426.573 247 39
-79.464 127.742 -429.173 250 38
-78.6385 127.378 -427.949 251 38
-77.8141 127.01 -426.713 252 38
-76.6584 127.618 -428.082 256 37
-75.4311 127.015 -426.732 258 38
-73.841 127.021 -426.753 262 38
-73.0558 127.387 -427.981 265 38
-71.8507 127.023 -426.757 267 38
-71.0573 127.024 -426.763 269 38
-69.8756 127.631 -428.127 273 37
-69.4683 127.398 -428.018 274 38
-68.678 127.63 -428.124 276 37
-67.0936 126.9 -425.675 278 37
-66.2828 127.035 -426.797 281 38
-65.0924 127.041 -426.817 284 38
-64.6996 127.27 -426.916 285 37
-63.136 126.707 -424.365 287 37
-62.6931 128.045 -428.173 291 36
-62.295 128.045 -428.175 292 36
-61.8938 128.043 -428.168 293 36
-60.348 127.31 -425.718 295 36
-59.5233 127.448 -426.846 298 37
-58.7559 127.084 -425.626 299 37
-57.5322 127.452 -426.86 303 37
-56.3454 127.688 -426.98 306 36
-55.9455 127.686 -426.973 307 36
-55.1911 127.32 -425.751 308 36
-53.604 127.323 -425.761 312 36
-53.9127 128.061 -428.229 313 36
-52.7588 127.463 -426.895 315 37
-52.014 127.098 -425.675 316 37
-51.1675 127.466 -426.906 319 37
-49.7434 126.374 -423.25 320 37
-48.4411 127.106 -425.7 325 37
-46.7916 127.703 -427.031 330 36
-45.9942 127.532 -427.123 332 36
-45.1995 127.706 -427.042 334 36
-44.4018 127.708 -427.047 336 36
-43.6805 127.343 -425.826 337 36
-42.4117 127.936 -427.143 341 35
-41.7713 126.805 -424.688 341 36
-41.1343 128.131 -428.461 345 35
-40.4221 128.117 -427.081 346 35
-39.3144 127.523 -425.766 348 36
-38.123 127.526 -425.774 351 36
-37.3261 127.752 -425.865 353 35
-36.8375 128.121 -427.095 355 35
-36.3256 127.024 -423.438 354 35
-35.6422 128.124 -427.102 358 35
-35.2449 128.125 -427.106 359 35
-34.8475 128.125 -427.107 360 35
-33.457 127.615 -424.745 362 34
-32.562 127.762 -425.896 365 35
-31.3701 127.764 -425.903 368 35
-30.574 127.987 -425.982 370 34
-30.0624 128.356 -427.212 372 34
